ply
format ascii 1.0
element vertex 794
property float x
property float y
property float z
end_header
0.6133021564737376 -0.31835824546892466 7.364933493412386e-06
0.6241504146008012 -0.31799127884641676 -2.096038595706103e-06
0.6349749393886618 -0.3176240720836678 -1.2857485456434291e-06
0.6457757021449071 -0.31725662977094243 9.760253683733477e-06
0.6565491627649138 -0.3168921969316316 3.2923029935955206e-07
0.6672984671989606 -0.31652806153914936 -3.973100867296938e-06
0.6780247387555991 -0.3161631492266401 7.037927524902984e-06
0.6887252496750372 -0.31580015005568246 7.833077510940289e-06
0.6994001975059138 -0.31543905374921266 -1.5524953066396247e-06
0.710052726364976 -0.31507664662529944 9.417912377227595e-06
0.7206793876577493 -0.3147166693460028 5.129818238075746e-06
0.7312822489045457 -0.3143569822067873 5.923515254361171e-06
0.741860030107933 -0.31399917682103184 -3.4170419738024106e-06
0.7524154296660269 -0.3136400688044796 7.5054790294616055e-06
0.7629451156052892 -0.31328389263436185 -1.8155971020554458e-06
0.7734524383184704 -0.31292641790556286 9.080243661452183e-06
0.7839343565826159 -0.3125718598487623 -2.2143175956588317e-07
0.7943935846114843 -0.31221653154990314 5.610405841950284e-06
0.8048280777120921 -0.3118635794200957 -3.66626965269177e-06
0.815240243802179 -0.31150933682750825 7.182331666507104e-06
0.8256276153725632 -0.3111579809152082 -2.075128129802589e-06
0.8359926778119677 -0.3108053385669571 8.747152526224599e-06
0.8463332466359066 -0.3104555680683151 -4.911703368221936e-07
0.8566510458812402 -0.31010554953232267 2.981298373031905e-07
0.8669458276853254 -0.3097558033239067 6.08341795276671e-06
0.8772172098149736 -0.3094073600029866 6.863545322537975e-06
0.887465509419707 -0.30905969972679553 7.641919543935918e-06
0.897690804221048 -0.3087128198587317 8.41854650467386e-06
0.9078928660814882 -0.3083677406000873 -7.572809113885258e-07
0.9180725528383137 -0.3080219011270405 4.996806885768327e-06
0.9282291942792488 -0.3076778547688725 8.095565511959656e-07
0.9383633757861729 -0.3073335601375118 6.549032303400092e-06
0.9484748170706978 -0.3069905420392701 7.322546327916218e-06
0.9585635758801111 -0.30664930023737963 -1.800928693933544e-06
0.968630034205122 -0.30630780700899446 -1.0198361846744628e-06
0.9786741319847562 -0.30596657004524386 4.696148930415435e-06
0.9886958385958623 -0.30562709725981546 5.371413535846573e-07
0.9986953314979173 -0.3052883769360165 -3.6126475354678643e-06
1.008672670242314 -0.3049499064330893 -2.8330090698407797e-06
1.0186279099146471 -0.30461218561745107 -2.055097446117628e-06
1.028561030378206 -0.3042742161438801 8.539746488311485e-06
1.0384723850809956 -0.3039389831070468 -5.044318261336164e-07
1.0483617662853113 -0.3036034964692161 2.6833356109293875e-07
1.0582294348159136 -0.30326924427487356 -3.853713287491871e-06
1.0680752887155802 -0.3029352337057801 -3.078960055782554e-06
1.0778992251351178 -0.30260097312870105 7.45875120157731e-06
1.0877020761585436 -0.30226941492458526 -1.5345620680438718e-06
1.0974828356332529 -0.3019366212626799 8.978313595886664e-06
1.1072427777095948 -0.301606516519626 3.061979612213536e-09
1.1169810230747623 -0.30127615646050493 7.693476816677095e-07
1.1266981635735025 -0.3009470064153299 -3.3216825911977834e-06
1.136393433359784 -0.3006171166948543 7.147209341731359e-06
1.1460684146546187 -0.3002898892902574 -1.7868686839727625e-06
1.1557218536135732 -0.2999624056645064 -1.021972438870986e-06
1.1653542602339018 -0.29963563554059974 -2.5874270917501345e-07
1.1749657031768241 -0.2993095765892727 5.028259554601013e-07
1.1845565475702975 -0.2989847072561273 -3.5612398236393303e-06
1.1941262829986252 -0.29866006265913453 -2.797737860264591e-06
1.203675258882471 -0.29833612231086437 -2.0358921600512986e-06
-0.3009432589838855 -0.20352896348815386 1.4999997082450802
-0.29265784554754537 -0.20323821304872206 1.5000002082952684
-0.28439742570706783 -0.20294850625778918 1.4999991242538462
-0.2761591774754506 -0.20265941069509888 1.4999996237118238
-0.2679443662553618 -0.20237113758104625 1.5000001217488892
-0.2597542156907653 -0.20208389572318816 1.4999990424485956
-0.251585968997713 -0.20179725641034688 1.4999995398978077
-0.24344086145007957 -0.20151142909412967 1.500000035937838
-0.2353200872028911 -0.20122662084380252 1.4999989613374083
-0.2272209536613877 -0.2009424066096259 1.4999994567938983
-0.21914466642525643 -0.20065899409641755 1.4999999508527848
-0.21109239060353227 -0.2003765886566379 1.4999988809114864
-0.2030614967956283 -0.20009476885515984 1.4999993743911013
-0.19505316137355053 -0.199813740671647 1.4999998664845593
-0.18706852083543993 -0.1995337077628894 1.4999988011621856
-0.17910500799830176 -0.19925425226234503 1.499999292680586
-0.17116377044502892 -0.19897557844580527 1.4999997828241294
-0.16324351320136032 -0.19869747778143818 1.5000018211129358
-0.1553489402101047 -0.198420767467268 1.4999992116536671
-0.14747396082907233 -0.19814441855491927 1.4999996998626322
-0.13962088656701224 -0.19786883833738347 1.5000001867135904
-0.1317907888118237 -0.19759422659503045 1.4999991313017957
-0.12398124185920302 -0.19732017361364906 1.4999996175913437
-0.11619332777901832 -0.19704687977402363 1.5000001025338463
-0.1084280907440524 -0.19677454322886553 1.4999990516165784
-0.1006820396837232 -0.19650255693770918 1.5000010684000253
-0.09295960265483705 -0.19623172188679394 1.5000000190505807
-0.08525842364874307 -0.1959616323800199 1.499998972589745
-0.07757731869651129 -0.19569208624875092 1.4999994550852336
-0.06991731550944544 -0.1954232806228128 1.4999999362551928
-0.06227724946967771 -0.19515501445179229 1.5000019379938958
-0.054661336142465246 -0.1948880761757304 1.4999993748336684
-0.047064109975103276 -0.19462147330865068 1.4999998541392077
-0.03948764110946885 -0.1943555988595526 1.5000003321351758
-0.03193288587177102 -0.19409064569599083 1.4999992952388452
-0.02439663592934204 -0.19382602330664533 1.5000012842198156
-0.01688295439421368 -0.19356251107340666 1.5000002488505673
-0.009389675267652173 -0.1932997143727896 1.4999992162927265
-0.0019157100548805655 -0.19303743656490557 1.49999969191228
0.00553800061111641 -0.1927758695334269 1.5000001662429014
0.01297055106812235 -0.19251520307520145 1.499999137987421
0.02038400761214586 -0.19225504843548932 1.4999996117850847
0.02777745490665648 -0.19199559596474108 1.500000084303953
0.03515001206744104 -0.19173703395172814 1.4999990603151498
0.04250369174112347 -0.1914789768032224 1.4999995323047899
0.04983760351764734 -0.19122161335465987 1.5000000030256413
0.057150890929890404 -0.1909651304045424 1.4999989832682727
0.06444551377862769 -0.1907091454826544 1.4999994534635819
0.07172060621664537 -0.19045384592733897 1.4999999224000014
0.07897533583913627 -0.1901994170643562 1.4999989068392678
0.08621161039031723 -0.18994547950862756 1.49999937525379
0.09342858822839503 -0.18969221911904635 1.4999998424192078
0.100626346437363 -0.1894396331905577 1.5000003083405133
0.10780408415453337 -0.18918790511194242 1.4999992976678578
0.11496364091787248 -0.18893665955402478 1.4999997630755564
0.12210420681446534 -0.18868608042994775 1.500000227248749
0.12922500423935063 -0.18843634969560114 1.4999992206983548
0.1363278224619346 -0.18818709502092468 1.499999684361459
0.14341187496414165 -0.18793849887971747 1.500000146799561
0.15047640706358587 -0.18769074181161874 1.4999991443379594
0.15752315850505183 -0.18744345444979876 1.499999606269459
0.1645513658276837 -0.18719681784546074 1.5000000669853468
0.17156029694214378 -0.1869510111383785 1.4999990685794675
0.17855164279955602 -0.18670566788963952 1.499999528792203
0.18552466266433523 -0.18646096774434018 1.4999999877986134
0.19247864671618736 -0.18621708845852375 1.4999989934157938
0.1994152378308169 -0.1859736664864428 1.4999994519224649
0.20633371767153955 -0.1857308800833237 1.4999999092319884
0.21323339836850697 -0.18548890563736808 1.499998918839959
0.2201158754277883 -0.1852473824617894 1.499999375653129
0.22698045259069086 -0.18500648743793272 1.4999998312782192
0.2338271995974012 -0.18476621811844188 1.5000002857198624
0.2406554573592851 -0.18452674909192215 1.4999992999771856
0.24746748029627347 -0.18428754686653684 1.5000011910712037
0.2542611516690767 -0.18404914010256737 1.5000016419900413
0.2610358559164079 -0.1838117006873127 1.4999992248877345
0.26779450038610214 -0.18357452271482264 1.4999996771807884
0.2745357255527996 -0.1833379560298456 1.50000012830813
0.28126028286310567 -0.1831018239719945 1.5000020061678219
0.2879655097211399 -0.18286682094649823 1.49999960102317
0.29465488635700376 -0.18263207356526034 1.500000050511359
0.3013264480838112 -0.18239810106759383 1.4999990764412527
0.3079815930016924 -0.18216455477343288 1.4999995254504852
0.31461971694369034 -0.18193160578945697 1.4999999733113487
0.3212415263056166 -0.18169908018731415 1.5000018369828476
0.3278445282939253 -0.18146766181200785 1.4999994504560306
0.3344319862843145 -0.1812364906379212 1.4999998967012627
0.34100206199854943 -0.1810060780238779 1.4999989302605972
0.347556066558846 -0.18077608062959036 1.4999993760331873
0.35409343641804664 -0.18054666699106153 1.4999998206743639
0.36061423482661953 -0.18031783488866512 1.5000002641884311
0.36711793216684735 -0.18008975072648198 1.4999993021754514
0.373605782962369 -0.17986207465629228 1.4999997452240224
0.3800772501126776 -0.17963497353211733 1.5000001871537705
0.3865318234005677 -0.1794086125182766 1.4999992288764037
0.39297071561212105 -0.17918265435052722 1.4999996703437002
0.3993934091567819 -0.17895726463787395 1.5000001107003709
0.4057994129463632 -0.17873260731861468 1.499999156129733
0.4121898986272555 -0.17850834768306434 1.4999995960269599
0.4185643678454761 -0.17828465010903163 1.500000034821671
0.4249223483747467 -0.17806167732232975 1.4999990839292203
0.4312649713096345 -0.1778390971388584 1.4999995222674662
0.4375917572637797 -0.17761707271884894 1.4999999595112194
0.4439022526100102 -0.1773957655889693 1.4999990122687359
0.4501975484691404 -0.17717484606216818 1.4999994490589734
0.45647718415781563 -0.17695447609451792 1.4999998847626579
0.462740724389375 -0.1767348160266866 1.4999989411422414
0.46899019548199355 -0.176515214668786 1.500002129455182
0.4752222313870781 -0.17629680470129364 1.4999998105697165
0.48143981341086195 -0.17607861219108795 1.5000002436693933
0.4876415557231972 -0.17586111988930947 1.4999993042704858
0.4938284583666925 -0.17564400382697884 1.4999997369262297
0.49999964727746327 -0.17542758319684668 1.4999988004675295
0.4999997178778627 -0.1773957655889693 1.4812998565920286
0.4999997900804183 -0.1794086125182766 1.4621765721282778
0.4999998639402911 -0.18146766181200785 1.4426143367711897
0.4999999395152061 -0.18357452271482264 1.4225978617062223
0.5000000168656041 -0.1857308800833237 1.4021111397588495
0.49999960751696515 -0.18793868250988538 1.381135820950559
0.49999968273470896 -0.1901994170643562 1.3596574534653314
0.49999975978408884 -0.19251520307520145 1.3376560633155212
0.4999998387328361 -0.1948880761757304 1.315112310733785
0.49999991965206075 -0.19732017361364906 1.292005890553591
0.5000000026164617 -0.199813740671647 1.2683154712096592
0.5000000877045679 -0.20237113758104625 1.2440186290540707
0.4999996421239669 -0.20499506544659432 1.2190898795593412
0.49999972471233645 -0.20768770616885807 1.1935081404076022
0.49999980949920214 -0.21045202486600556 1.167245416510574
0.49999989657353655 -0.21329092224305563 1.1402741493906112
0.49999998602917606 -0.2162074576617353 1.1125652732339881
0.500000647777331 -0.21920461032697242 1.0840902938258166
0.49999959466203947 -0.2222867971535595 1.0548080101956905
0.5000008557642923 -0.2254558389113924 1.0246997809039005
0.4999997751910584 -0.22871763453442354 0.993711114482827
0.5000004726968644 -0.23207435607801016 0.9618200018444002
0.4999999664768141 -0.23553165030390114 0.9289737892796887
0.5000006879693588 -0.23909291698593557 0.8951393664062619
0.5000008005633966 -0.24276383695465276 0.8602633741098591
0.5000002757757739 -0.24654955378247093 0.8242969548432284
0.5000003854077989 -0.2504548856163548 0.7871939093691032
0.49999983704422407 -0.25448626591323215 0.7488935467697693
0.5000006154321283 -0.2586488538238753 0.7093461904174378
0.5000000526553924 -0.2629505985366107 0.6684772075318045
0.5000008610166368 -0.2673971096623026 0.6262323993238817
0.5000002831026795 -0.27199735831029415 0.5825274539794139
0.5000004043767713 -0.27675826308759705 0.5372959454026112
0.4022826513869931 -0.33674092467491135 -2.948337674781562e-06
0.41362528695225426 -0.33634287531660023 -2.1178881130292494e-06
0.42494113873304906 -0.3359457658869468 -1.2893995171334648e-06
0.436231284975443 -0.33554900769830914 4.770600559390275e-06
0.44749383222743605 -0.33515376954388754 5.589022135347735e-06
0.45872893670332937 -0.3347600439951138 1.1843696609829202e-06
0.4699395178852745 -0.3343660799408485 7.2200948419488945e-06
0.48112284270139055 -0.3339736219505091 8.032759518568141e-06
0.4922781846749428 -0.33358324120714156 -1.5620609788105112e-06
0.5034091986388498 -0.33319261768637537 -7.410128956049537e-07
0.5145141744223832 -0.3328029079301353 7.81145541208471e-08
0.5255932032833766 -0.3324141087358853 8.953281017451195e-07
0.5366455762235186 -0.3320267900519279 -3.4678922507577967e-06
0.5476745630239743 -0.33163865749919835 7.696511967942027e-06
0.5586762745626142 -0.3312525722553339 8.502000827422323e-06
0.569652400065423 -0.3308673849072968 9.305616408663334e-06
0.5806023080960585 -0.33048366014730146 4.952920722746364e-06
0.59152684715006 -0.33010082440888006 6.103094535070537e-07
0.6024261052884771 -0.3297188746060516 -3.7222524094653916e-06
0.6133021564737376 -0.3293361160023358 7.364933493412386e-06
0.6241504146008012 -0.32895649535836213 -2.096038595706103e-06
0.6349749393886618 -0.32857662629344936 -1.2857485456434291e-06
0.6457757021449071 -0.3281965135561473 9.760253683733477e-06
0.6565491627649138 -0.32781951406720505 3.2923029935955206e-07
0.6672984671989606 -0.3274428222818786 -3.973100867296938e-06
0.6780247387555991 -0.3270653267861794 7.037927524902984e-06
0.6887252496750372 -0.3266898104024301 7.833077510940289e-06
0.6994001975059138 -0.32631626249918544 -1.5524953066396247e-06
0.710052726364976 -0.3259413585778959 9.417912377227595e-06
0.7206793876577493 -0.32556896828896836 5.129818238075746e-06
0.7312822489045457 -0.32519687814495235 5.923515254361171e-06
0.741860030107933 -0.3248267346424467 -3.4170419738024106e-06
0.7524154296660269 -0.32445524359084094 7.5054790294616055e-06
0.7629451156052892 -0.3240867854838226 -1.8155971020554458e-06
0.7734524383184704 -0.3237169840402374 9.080243661452183e-06
0.7839343565826159 -0.3233501998435472 -2.2143175956588317e-07
0.7943935846114843 -0.32298261884472734 5.610405841950284e-06
0.8048280777120921 -0.32261749595182304 -3.66626965269177e-06
0.815240243802179 -0.3222510380974223 7.182331666507104e-06
0.8256276153725632 -0.32188756646400846 -2.075128129802589e-06
0.8359926778119677 -0.32152276403478314 8.747152526224599e-06
0.8463332466359066 -0.32116093248446387 -4.911703368221936e-07
0.8566510458812402 -0.32079884434378203 2.981298373031905e-07
0.8669458276853254 -0.32043703792128275 6.08341795276671e-06
0.8772172098149736 -0.32007657931343436 6.863545322537975e-06
0.887465509419707 -0.3197169307518574 7.641919543935918e-06
0.897690804221048 -0.31935808950903277 8.41854650467386e-06
0.9078928660814882 -0.3190011109656075 -7.572809113885258e-07
0.9180725528383137 -0.3186433459934901 4.996806885768327e-06
0.9282291942792488 -0.31828743596779907 8.095565511959656e-07
0.9383633757861729 -0.31793126910777075 6.549032303400092e-06
0.9484748170706978 -0.3175764227992449 7.322546327916218e-06
0.9585635758801111 -0.31722341403866855 -1.800928693933544e-06
0.968630034205122 -0.31687014518171835 -1.0198361846744628e-06
0.9786741319847562 -0.3165171414261143 4.696148930415435e-06
0.9886958385958623 -0.3161659626825677 5.371413535846573e-07
0.9986953314979173 -0.3158155623476032 -3.6126475354678643e-06
1.008672670242314 -0.31546542044802334 -2.8330090698407797e-06
1.0186279099146471 -0.3151160540870183 -2.055097446117628e-06
1.028561030378206 -0.31476643049366904 8.539746488311485e-06
1.0384723850809956 -0.3144196376969449 -5.044318261336164e-07
1.0483617662853113 -0.31407258255436143 2.6833356109293875e-07
1.0582294348159136 -0.31372680442228296 -3.853713287491871e-06
1.0680752887155802 -0.31338127624735873 -3.078960055782554e-06
1.0778992251351178 -0.3130354894434838 7.45875120157731e-06
1.0877020761585436 -0.3126924981978468 -1.5345620680438718e-06
1.0974828356332529 -0.3123482288924274 8.978313595886664e-06
1.1072427777095948 -0.31200674122719924 3.061979612213536e-09
1.1169810230747623 -0.31166498944190163 7.693476816677095e-07
1.1266981635735025 -0.3113244893951688 -3.3216825911977834e-06
1.136393433359784 -0.3109832241670906 7.147209341731359e-06
1.1460684146546187 -0.3106447130588869 -1.7868686839727625e-06
1.1557218536135732 -0.3103059368943169 -1.021972438870986e-06
1.1653542602339018 -0.3099678988351032 -2.5874270917501345e-07
1.1749657031768241 -0.30963059647166136 5.028259554601013e-07
1.1845565475702975 -0.30929452474771785 -3.5612398236393303e-06
1.1941262829986252 -0.3089586855094495 -2.797737860264591e-06
1.203675258882471 -0.30862357480434244 -2.0358921600512986e-06
-0.3009432589838855 -0.21031326227109234 1.4999997082450802
-0.29265784554754537 -0.21001282015034614 1.5000002082952684
-0.28439742570706783 -0.20971345646638218 1.4999991242538462
-0.2761591774754506 -0.20941472438493555 1.4999996237118238
-0.2679443662553618 -0.20911684216708115 1.5000001217488892
-0.2597542156907653 -0.20882002558062782 1.4999990424485956
-0.251585968997713 -0.20852383162402513 1.4999995398978077
-0.24344086145007957 -0.2082284767306007 1.500000035937838
-0.2353200872028911 -0.2079341748719293 1.4999989613374083
-0.2272209536613877 -0.2076404868299468 1.4999994567938983
-0.21914466642525643 -0.20734762723296485 1.4999999508527848
-0.21109239060353227 -0.20705580827852585 1.4999988809114864
-0.2030614967956283 -0.2067645944836652 1.4999993743911013
-0.19505316137355053 -0.20647419869403527 1.4999998664845593
-0.18706852083543993 -0.20618483135498572 1.4999988011621856
-0.17910500799830176 -0.20589606067108987 1.499999292680586
-0.17116377044502892 -0.20560809772733213 1.4999997828241294
-0.16324351320136032 -0.20532072704081947 1.5000018211129358
-0.1553489402101047 -0.2050347930495103 1.4999992116536671
-0.14747396082907233 -0.20474923250674992 1.4999996998626322
-0.13962088656701224 -0.20446446628196296 1.5000001867135904
-0.1317907888118237 -0.20418070081486484 1.4999991313017957
-0.12398124185920302 -0.20389751273410406 1.4999996175913437
-0.11619332777901832 -0.20361510909982444 1.5000001025338463
-0.1084280907440524 -0.20333369466982776 1.4999990516165784
-0.1006820396837232 -0.20305264216896618 1.5000010684000253
-0.09295960265483705 -0.20277277928302043 1.5000000190505807
-0.08525842364874307 -0.20249368679268726 1.499998972589745
-0.07757731869651129 -0.202215155790376 1.4999994550852336
-0.06991731550944544 -0.20193738997690658 1.4999999362551928
-0.06227724946967771 -0.20166018160018537 1.5000019379938958
-0.054661336142465246 -0.2013843453815881 1.4999993748336684
-0.047064109975103276 -0.2011088557522724 1.4999998541392077
-0.03948764110946885 -0.2008341188215377 1.5000003321351758
-0.03193288587177102 -0.2005603338858572 1.4999992952388452
-0.02439663592934204 -0.2002868907502002 1.5000012842198156
-0.01688295439421368 -0.20001459477585357 1.5000002488505673
-0.009389675267652173 -0.19974303818521594 1.4999992162927265
-0.0019157100548805655 -0.19947201778373577 1.49999969191228
0.00553800061111641 -0.19920173185120782 1.5000001662429014
0.01297055106812235 -0.1989323765110415 1.499999137987421
0.02038400761214586 -0.19866355005000566 1.4999996117850847
0.02777745490665648 -0.1983954491635658 1.500000084303953
0.03515001206744104 -0.19812826841678577 1.4999990603151498
0.04250369174112347 -0.19786160936332983 1.4999995323047899
0.04983760351764734 -0.19759566713314855 1.5000000030256413
0.057150890929890404 -0.19733063475136053 1.4999989832682727
0.06444551377862769 -0.19706611699874294 1.4999994534635819
0.07172060621664537 -0.1968023074582503 1.4999999224000014
0.07897533583913627 -0.1965393976331681 1.4999989068392678
0.08621161039031723 -0.1962769954922485 1.49999937525379
0.09342858822839503 -0.19601529308968124 1.4999998424192078
0.100626346437363 -0.195754287630243 1.5000003083405133
0.10780408415453337 -0.19549416861567384 1.4999992976678578
0.11496364091787248 -0.19523454820582561 1.4999997630755564
0.12210420681446534 -0.19497561644427935 1.500000227248749
0.12922500423935063 -0.1947175613521212 1.4999992206983548
0.1363278224619346 -0.19445999818828888 1.499999684361459
0.14341187496414165 -0.19420311550904143 1.500000146799561
0.15047640706358587 -0.19394709987200606 1.4999991443379594
0.15752315850505183 -0.1936915695981254 1.499999606269459
0.1645513658276837 -0.19343671177364277 1.5000000669853468
0.17156029694214378 -0.19318271150965782 1.4999990685794675
0.17855164279955602 -0.19292919015262752 1.499999528792203
0.18552466266433523 -0.1926763333358182 1.4999999877986134
0.19247864671618736 -0.19242432474047458 1.4999989934157938
0.1994152378308169 -0.1921727887026576 1.4999994519224649
0.20633371767153955 -0.19192190941943452 1.4999999092319884
0.21323339836850697 -0.1916718691586137 1.499998918839959
0.2201158754277883 -0.19142229521051574 1.499999375653129
0.22698045259069086 -0.1911733703525305 1.4999998312782192
0.2338271995974012 -0.19092509205572328 1.5000002857198624
0.2406554573592851 -0.19067764072831958 1.4999992999771856
0.24746748029627347 -0.19043046509542141 1.5000011910712037
0.2542611516690767 -0.19018411143931965 1.5000016419900413
0.2610358559164079 -0.1899387573768898 1.4999992248877345
0.26779450038610214 -0.1896936734719834 1.4999996771807884
0.2745357255527996 -0.1894492212308405 1.50000012830813
0.28126028286310567 -0.18920521810439436 1.5000020061678219
0.2879655097211399 -0.18896238164471485 1.49999960102317
0.29465488635700376 -0.18871980935076904 1.500000050511359
0.3013264480838112 -0.18847803776984698 1.4999990764412527
0.3079815930016924 -0.188236706599214 1.4999995254504852
0.31461971694369034 -0.18799599264910555 1.4999999733113487
0.3212415263056166 -0.18775571619355796 1.5000018369828476
0.3278445282939253 -0.18751658387240813 1.4999994504560306
0.3344319862843145 -0.18727770699251858 1.4999998967012627
0.34100206199854943 -0.18703961395800717 1.4999989302605972
0.347556066558846 -0.18680194998391006 1.4999993760331873
0.35409343641804664 -0.18656488922409692 1.4999998206743639
0.36061423482661953 -0.186328429384954 1.5000002641884311
0.36711793216684735 -0.18609274241736473 1.4999993021754514
0.373605782962369 -0.1858574771448354 1.4999997452240224
0.3800772501126776 -0.18562280598318792 1.5000001871537705
0.3865318234005677 -0.1853888996022192 1.4999992288764037
0.39297071561212105 -0.18515540949554482 1.4999996703437002
0.3993934091567819 -0.18492250679246977 1.5000001107003709
0.4057994129463632 -0.18469036089590185 1.499999156129733
0.4121898986272555 -0.1844586259391665 1.4999995960269599
0.4185643678454761 -0.1842274717793327 1.500000034821671
0.4249223483747467 -0.1839970665664074 1.4999990839292203
0.4312649713096345 -0.18376706704348703 1.4999995222674662
0.4375917572637797 -0.18353764180947726 1.4999999595112194
0.4439022526100102 -0.1833089577752683 1.4999990122687359
0.4501975484691404 -0.1830806742642405 1.4999994490589734
0.45647718415781563 -0.18285295863100187 1.4999998847626579
0.462740724389375 -0.1826259765609095 1.4999989411422414
0.46899019548199355 -0.18239905515774554 1.500002129455182
0.4752222313870781 -0.18217336485800345 1.4999998105697165
0.48143981341086195 -0.18194789926412422 1.5000002436693933
0.4876415557231972 -0.18172315721895313 1.4999993042704858
0.4938284583666925 -0.18149880395454482 1.4999997369262297
0.49999964727746327 -0.18127516930340826 1.4999988004675295
0.4999997178778627 -0.1833089577752683 1.4812998565920286
0.4999997900804183 -0.1853888996022192 1.4621765721282778
0.4999998639402911 -0.18751658387240813 1.4426143367711897
0.4999999395152061 -0.1896936734719834 1.4225978617062223
0.5000000168656041 -0.19192190941943452 1.4021111397588495
0.49999960751696515 -0.1942033052602149 1.381135820950559
0.49999968273470896 -0.1965393976331681 1.3596574534653314
0.49999975978408884 -0.1989323765110415 1.3376560633155212
0.4999998387328361 -0.2013843453815881 1.315112310733785
0.49999991965206075 -0.20389751273410406 1.292005890553591
0.5000000026164617 -0.20647419869403527 1.2683154712096592
0.5000000877045679 -0.20911684216708115 1.2440186290540707
0.4999996421239669 -0.21182823429481415 1.2190898795593412
0.49999972471233645 -0.21461062970782002 1.1935081404076022
0.49999980949920214 -0.2174670923615391 1.167245416510574
0.49999989657353655 -0.2204006196511575 1.1402741493906112
0.49999998602917606 -0.22341437291712649 1.1125652732339881
0.500000647777331 -0.22651143067120486 1.0840902938258166
0.49999959466203947 -0.2296963570586782 1.0548080101956905
0.5000008557642923 -0.23297103354177218 1.0246997809039005
0.4999997751910584 -0.23634155568557103 0.993711114482827
0.5000004726968644 -0.2398101679472772 0.9618200018444002
0.4999999664768141 -0.2433827053140312 0.9289737892796887
0.5000006879693588 -0.2470626808854668 0.8951393664062619
0.5000008005633966 -0.2508559648531412 0.8602633741098591
0.5000002757757739 -0.25476787224188663 0.8242969548432284
0.5000003854077989 -0.25880338180356666 0.7871939093691032
0.49999983704422407 -0.2629691414436733 0.7488935467697693
0.5000006154321283 -0.2672704822846712 0.7093461904174378
0.5000000526553924 -0.27171561848783105 0.6684772075318045
0.5000008610166368 -0.2763103466510461 0.6262323993238817
0.5000002831026795 -0.2810639369206373 0.5825274539794139
0.5000004043767713 -0.28598353852385033 0.5372959454026112
0.4022826513869931 -0.34796562216407506 -2.948337674781562e-06
0.41362528695225426 -0.3475543044938203 -2.1178881130292494e-06
0.42494113873304906 -0.34714395808317844 -1.2893995171334648e-06
0.436231284975443 -0.34673397462158617 4.770600559390275e-06
0.44749383222743605 -0.34632556186201713 5.589022135347735e-06
0.45872893670332937 -0.3459187121282843 1.1843696609829202e-06
0.4699395178852745 -0.3455116159388768 7.2200948419488945e-06
0.48112284270139055 -0.3451060760155261 8.032759518568141e-06
0.4922781846749428 -0.34470268258071296 -1.5620609788105112e-06
0.5034091986388498 -0.34429903827592123 -7.410128956049537e-07
0.5145141744223832 -0.3438963381944732 7.81145541208471e-08
0.5255932032833766 -0.3434945790270815 8.953281017451195e-07
0.5366455762235186 -0.34309434972032554 -3.4678922507577967e-06
0.5476745630239743 -0.3426932794158383 7.696511967942027e-06
0.5586762745626142 -0.3422943246638451 8.502000827422323e-06
0.569652400065423 -0.34189629773754004 9.305616408663334e-06
0.5806023080960585 -0.34149978215221155 4.952920722746364e-06
0.59152684715006 -0.3411041852225094 6.103094535070537e-07
0.6024261052884771 -0.3407095037595867 -3.7222524094653916e-06
0.6133021564737376 -0.34031398653574707 7.364933493412386e-06
0.6241504146008012 -0.33992171187030756 -2.096038595706103e-06
0.6349749393886618 -0.33952918050323105 -1.2857485456434291e-06
0.6457757021449071 -0.33913639734135226 9.760253683733477e-06
0.6565491627649138 -0.3387468312027786 3.2923029935955206e-07
0.6672984671989606 -0.3383575830246079 -3.973100867296938e-06
0.6780247387555991 -0.3379675043457187 7.037927524902984e-06
0.6887252496750372 -0.3375794707491778 7.833077510940289e-06
0.6994001975059138 -0.3371934712491583 -1.5524953066396247e-06
0.710052726364976 -0.3368060705304925 9.417912377227595e-06
0.7206793876577493 -0.33642126723193405 5.129818238075746e-06
0.7312822489045457 -0.33603677408311744 5.923515254361171e-06
0.741860030107933 -0.33565429246386164 -3.4170419738024106e-06
0.7524154296660269 -0.33527041837720234 7.5054790294616055e-06
0.7629451156052892 -0.33488967833328337 -1.8155971020554458e-06
0.7734524383184704 -0.334507550174912 9.080243661452183e-06
0.7839343565826159 -0.33412853983833213 -2.2143175956588317e-07
0.7943935846114843 -0.33374870613955165 5.610405841950284e-06
0.8048280777120921 -0.33337141248355057 -3.66626965269177e-06
0.815240243802179 -0.3329927393673364 7.182331666507104e-06
0.8256276153725632 -0.3326171520128088 -2.075128129802589e-06
0.8359926778119677 -0.33224018950260925 8.747152526224599e-06
0.8463332466359066 -0.3318662969006127 -4.911703368221936e-07
0.8566510458812402 -0.3314921391552415 2.981298373031905e-07
0.8669458276853254 -0.3311182725186589 6.08341795276671e-06
0.8772172098149736 -0.3307457986238822 6.863545322537975e-06
0.887465509419707 -0.33037416177691936 7.641919543935918e-06
0.897690804221048 -0.3300033591593339 8.41854650467386e-06
0.9078928660814882 -0.3296344813311278 -7.572809113885258e-07
0.9180725528383137 -0.3292647908599398 4.996806885768327e-06
0.9282291942792488 -0.32889701716672576 8.095565511959656e-07
0.9383633757861729 -0.32852897807802983 6.549032303400092e-06
0.9484748170706978 -0.32816230355921977 7.322546327916218e-06
0.9585635758801111 -0.3277975278399575 -1.800928693933544e-06
0.968630034205122 -0.3274324833544423 -1.0198361846744628e-06
0.9786741319847562 -0.3270677128069848 4.696148930415435e-06
0.9886958385958623 -0.32670482810532 5.371413535846573e-07
0.9986953314979173 -0.32634274775919003 -3.6126475354678643e-06
1.008672670242314 -0.3259809344629575 -2.8330090698407797e-06
1.0186279099146471 -0.3256199225565857 -2.055097446117628e-06
1.028561030378206 -0.325258644843458 8.539746488311485e-06
1.0384723850809956 -0.32490029228684314 -5.044318261336164e-07
1.0483617662853113 -0.32454166863950684 2.6833356109293875e-07
1.0582294348159136 -0.3241843645696924 -3.853713287491871e-06
1.0680752887155802 -0.3238273187889374 -3.078960055782554e-06
1.0778992251351178 -0.3234700057582666 7.45875120157731e-06
1.0877020761585436 -0.3231155814711084 -1.5345620680438718e-06
1.0974828356332529 -0.32275983652217505 8.978313595886664e-06
1.1072427777095948 -0.3224069659347726 3.061979612213536e-09
1.1169810230747623 -0.3220538224232984 7.693476816677095e-07
1.1266981635735025 -0.3217019723750078 -3.3216825911977834e-06
1.136393433359784 -0.321349331639327 7.147209341731359e-06
1.1460684146546187 -0.32099953682751653 -1.7868686839727625e-06
1.1557218536135732 -0.3206494681241275 -1.021972438870986e-06
1.1653542602339018 -0.3203001621296066 -2.5874270917501345e-07
1.1749657031768241 -0.3199516163540501 5.028259554601013e-07
1.1845565475702975 -0.3196043422393085 -3.5612398236393303e-06
1.1941262829986252 -0.3192573083597645 -2.797737860264591e-06
1.203675258882471 -0.31891102729782056 -2.0358921600512986e-06
-0.3009432589838855 -0.21709756105403077 1.4999997082450802
-0.29265784554754537 -0.2167874272519702 1.5000002082952684
-0.28439742570706783 -0.21647840667497512 1.4999991242538462
-0.2761591774754506 -0.21617003807477214 1.4999996237118238
-0.2679443662553618 -0.215862546753116 1.5000001217488892
-0.2597542156907653 -0.2155561554380674 1.4999990424485956
-0.251585968997713 -0.21525040683770333 1.4999995398978077
-0.24344086145007957 -0.21494552436707165 1.500000035937838
-0.2353200872028911 -0.21464172890005603 1.4999989613374083
-0.2272209536613877 -0.21433856705026763 1.4999994567938983
-0.21914466642525643 -0.21403626036951207 1.4999999508527848
-0.21109239060353227 -0.21373502790041377 1.4999988809114864
-0.2030614967956283 -0.2134344201121705 1.4999993743911013
-0.19505316137355053 -0.21313465671642348 1.4999998664845593
-0.18706852083543993 -0.21283595494708202 1.4999988011621856
-0.17910500799830176 -0.21253786907983468 1.499999292680586
-0.17116377044502892 -0.21224061700885896 1.4999997828241294
-0.16324351320136032 -0.2119439763002007 1.5000018211129358
-0.1553489402101047 -0.21164881863175253 1.4999992116536671
-0.14747396082907233 -0.21135404645858055 1.4999996998626322
-0.13962088656701224 -0.21106009422654237 1.5000001867135904
-0.1317907888118237 -0.21076717503469916 1.4999991313017957
-0.12398124185920302 -0.210474851854559 1.4999996175913437
-0.11619332777901832 -0.2101833384256252 1.5000001025338463
-0.1084280907440524 -0.20989284611078993 1.4999990516165784
-0.1006820396837232 -0.20960272740022315 1.5000010684000253
-0.09295960265483705 -0.20931383667924686 1.5000000190505807
-0.08525842364874307 -0.20902574120535455 1.499998972589745
-0.07757731869651129 -0.20873822533200098 1.4999994550852336
-0.06991731550944544 -0.20845149933100032 1.4999999362551928
-0.06227724946967771 -0.20816534874857842 1.5000019379938958
-0.054661336142465246 -0.20788061458744575 1.4999993748336684
-0.047064109975103276 -0.20759623819589407 1.4999998541392077
-0.03948764110946885 -0.20731263878352277 1.5000003321351758
-0.03193288587177102 -0.20703002207572355 1.4999992952388452
-0.02439663592934204 -0.20674775819375502 1.5000012842198156
-0.01688295439421368 -0.20646667847830044 1.5000002488505673
-0.009389675267652173 -0.20618636199764223 1.4999992162927265
-0.0019157100548805655 -0.20590659900256594 1.49999969191228
0.00553800061111641 -0.20562759416898868 1.5000001662429014
0.01297055106812235 -0.20534954994688154 1.499999137987421
0.02038400761214586 -0.20507205166452194 1.4999996117850847
0.02777745490665648 -0.2047953023623905 1.500000084303953
0.03515001206744104 -0.20451950288184334 1.4999990603151498
0.04250369174112347 -0.20424424192343724 1.4999995323047899
0.04983760351764734 -0.2039697209116372 1.5000000030256413
0.057150890929890404 -0.20369613909817857 1.4999989832682727
0.06444551377862769 -0.20342308851483137 1.4999994534635819
0.07172060621664537 -0.20315076898916157 1.4999999224000014
0.07897533583913627 -0.20287937820197996 1.4999989068392678
0.08621161039031723 -0.2026085114758694 1.49999937525379
0.09342858822839503 -0.2023383670603161 1.4999998424192078
0.100626346437363 -0.20206894206992823 1.5000003083405133
0.10780408415453337 -0.20180043211940524 1.4999992976678578
0.11496364091787248 -0.20153243685762642 1.4999997630755564
0.12210420681446534 -0.20126515245861093 1.500000227248749
0.12922500423935063 -0.20099877300864122 1.4999992206983548
0.1363278224619346 -0.200732901355653 1.499999684361459
0.14341187496414165 -0.2004677321383653 1.500000146799561
0.15047640706358587 -0.20020345793239333 1.4999991443379594
0.15752315850505183 -0.199939684746452 1.499999606269459
0.1645513658276837 -0.19967660570182477 1.5000000669853468
0.17156029694214378 -0.1994144118809371 1.4999990685794675
0.17855164279955602 -0.19915271241561547 1.499999528792203
0.18552466266433523 -0.1988916989272962 1.4999999877986134
0.19247864671618736 -0.19863156102242535 1.4999989934157938
0.1994152378308169 -0.19837191091887235 1.4999994519224649
0.20633371767153955 -0.19811293875554528 1.4999999092319884
0.21323339836850697 -0.1978548326798593 1.499998918839959
0.2201158754277883 -0.19759720795924202 1.499999375653129
0.22698045259069086 -0.19734025326712823 1.4999998312782192
0.2338271995974012 -0.19708396599300465 1.5000002857198624
0.2406554573592851 -0.19682853236471695 1.4999992999771856
0.24746748029627347 -0.19657338332430596 1.5000011910712037
0.2542611516690767 -0.19631908277607185 1.5000016419900413
0.2610358559164079 -0.1960658140664669 1.4999992248877345
0.26779450038610214 -0.19581282422914412 1.4999996771807884
0.2745357255527996 -0.1955604864318353 1.50000012830813
0.28126028286310567 -0.19530861223679416 1.5000020061678219
0.2879655097211399 -0.19505794234293142 1.49999960102317
0.29465488635700376 -0.1948075451362777 1.500000050511359
0.3013264480838112 -0.1945579744721001 1.4999990764412527
0.3079815930016924 -0.19430885842499507 1.4999995254504852
0.31461971694369034 -0.19406037950875407 1.4999999733113487
0.3212415263056166 -0.19381235219980175 1.5000018369828476
0.3278445282939253 -0.19356550593280836 1.4999994504560306
0.3344319862843145 -0.19331892334711595 1.4999998967012627
0.34100206199854943 -0.19307314989213642 1.4999989302605972
0.347556066558846 -0.1928278193382297 1.4999993760331873
0.35409343641804664 -0.1925831114571323 1.4999998206743639
0.36061423482661953 -0.1923390238812428 1.5000002641884311
0.36711793216684735 -0.19209573410824746 1.4999993021754514
0.373605782962369 -0.19185287963337844 1.4999997452240224
0.3800772501126776 -0.19161063843425846 1.5000001871537705
0.3865318234005677 -0.1913691866861617 1.4999992288764037
0.39297071561212105 -0.19112816464056237 1.4999996703437002
0.3993934091567819 -0.19088774894706556 1.5000001107003709
0.4057994129463632 -0.190648114473189 1.499999156129733
0.4121898986272555 -0.19040890419526862 1.4999995960269599
0.4185643678454761 -0.19017029344963374 1.500000034821671
0.4249223483747467 -0.18993245581048504 1.4999990839292203
0.4312649713096345 -0.18969503694811563 1.4999995222674662
0.4375917572637797 -0.18945821090010553 1.4999999595112194
0.4439022526100102 -0.18922214996156725 1.4999990122687359
0.4501975484691404 -0.18898650246631274 1.4999994490589734
0.45647718415781563 -0.18875144116748577 1.4999998847626579
0.462740724389375 -0.18851713709513238 1.4999989411422414
0.46899019548199355 -0.18828289564670506 1.500002129455182
0.4752222313870781 -0.1880499250147132 1.4999998105697165
0.48143981341086195 -0.18781718633716046 1.5000002436693933
0.4876415557231972 -0.18758519454859676 1.4999993042704858
0.4938284583666925 -0.18735360408211074 1.4999997369262297
0.49999964727746327 -0.18712275540996978 1.4999988004675295
0.4999997178778627 -0.18922214996156725 1.4812998565920286
0.4999997900804183 -0.1913691866861617 1.4621765721282778
0.4999998639402911 -0.19356550593280836 1.4426143367711897
0.4999999395152061 -0.19581282422914412 1.4225978617062223
0.5000000168656041 -0.19811293875554528 1.4021111397588495
0.49999960751696515 -0.2004679280105444 1.381135820950559
0.49999968273470896 -0.20287937820197996 1.3596574534653314
0.49999975978408884 -0.20534954994688154 1.3376560633155212
0.4999998387328361 -0.20788061458744575 1.315112310733785
0.49999991965206075 -0.210474851854559 1.292005890553591
0.5000000026164617 -0.21313465671642348 1.2683154712096592
0.5000000877045679 -0.215862546753116 1.2440186290540707
0.4999996421239669 -0.21866140314303395 1.2190898795593412
0.49999972471233645 -0.22153355324678192 1.1935081404076022
0.49999980949920214 -0.2244821598570726 1.167245416510574
0.49999989657353655 -0.2275103170592593 1.1402741493906112
0.49999998602917606 -0.23062128817251765 1.1125652732339881
0.500000647777331 -0.23381825101543724 1.0840902938258166
0.49999959466203947 -0.23710591696379682 1.0548080101956905
0.5000008557642923 -0.2404862281721519 1.0246997809039005
0.4999997751910584 -0.24396547683671846 0.993711114482827
0.5000004726968644 -0.24754597981654416 0.9618200018444002
0.4999999664768141 -0.2512337603241612 0.9289737892796887
0.5000006879693588 -0.2550324447849979 0.8951393664062619
0.5000008005633966 -0.2589480927516296 0.8602633741098591
0.5000002757757739 -0.2629861907013023 0.8242969548432284
0.5000003854077989 -0.2671518779907785 0.7871939093691032
0.49999983704422407 -0.2714520169741143 0.7488935467697693
0.5000006154321283 -0.275892110745467 0.7093461904174378
0.5000000526553924 -0.28048063843905136 0.6684772075318045
0.5000008610166368 -0.2852235836397895 0.6262323993238817
0.5000002831026795 -0.2901305155309804 0.5825274539794139
0.5000004043767713 -0.2952088139601035 0.5372959454026112
0.4022826513869931 -0.3591903196532387 -2.948337674781562e-06
0.41362528695225426 -0.35876573367104025 -2.1178881130292494e-06
0.42494113873304906 -0.35834215027940997 -1.2893995171334648e-06
0.436231284975443 -0.3579189415448631 4.770600559390275e-06
0.44749383222743605 -0.3574973541801467 5.589022135347735e-06
0.45872893670332937 -0.3570773802614547 1.1843696609829202e-06
0.4699395178852745 -0.35665715193690506 7.2200948419488945e-06
0.48112284270139055 -0.35623853008054307 8.032759518568141e-06
0.4922781846749428 -0.3558221239542843 -1.5620609788105112e-06
0.5034091986388498 -0.35540545886546704 -7.410128956049537e-07
0.5145141744223832 -0.354989768458811 7.81145541208471e-08
0.5255932032833766 -0.35457504931827766 8.953281017451195e-07
0.5366455762235186 -0.3541619093887231 -3.4678922507577967e-06
0.5476745630239743 -0.35374790133247824 7.696511967942027e-06
0.5586762745626142 -0.35333607707235615 8.502000827422323e-06
0.569652400065423 -0.3529252105677832 9.305616408663334e-06
0.5806023080960585 -0.35251590415712153 4.952920722746364e-06
0.59152684715006 -0.3521075460361387 6.103094535070537e-07
0.6024261052884771 -0.3517001329131217 -3.7222524094653916e-06
0.6133021564737376 -0.3512918570691582 7.364933493412386e-06
0.6241504146008012 -0.35088692838225294 -2.096038595706103e-06
0.6349749393886618 -0.35048173471301264 -1.2857485456434291e-06
0.6457757021449071 -0.35007628112655714 9.760253683733477e-06
0.6565491627649138 -0.34967414833835203 3.2923029935955206e-07
0.6672984671989606 -0.3492723437673372 -3.973100867296938e-06
0.6780247387555991 -0.34886968190525797 7.037927524902984e-06
0.6887252496750372 -0.3484691310959254 7.833077510940289e-06
0.6994001975059138 -0.34807067999913116 -1.5524953066396247e-06
0.710052726364976 -0.34767078248308897 9.417912377227595e-06
0.7206793876577493 -0.3472735661748996 5.129818238075746e-06
0.7312822489045457 -0.3468766700212825 5.923515254361171e-06
0.741860030107933 -0.3464818502852765 -3.4170419738024106e-06
0.7524154296660269 -0.3460855931635637 7.5054790294616055e-06
0.7629451156052892 -0.3456925711827441 -1.8155971020554458e-06
0.7734524383184704 -0.34529811630958657 9.080243661452183e-06
0.7839343565826159 -0.34490687983311696 -2.2143175956588317e-07
0.7943935846114843 -0.34451479343437585 5.610405841950284e-06
0.8048280777120921 -0.3441253290152779 -3.66626965269177e-06
0.815240243802179 -0.34373444063725045 7.182331666507104e-06
0.8256276153725632 -0.343346737561609 -2.075128129802589e-06
0.8359926778119677 -0.3429576149704353 8.747152526224599e-06
0.8463332466359066 -0.3425716613167614 -4.911703368221936e-07
0.8566510458812402 -0.34218543396670087 2.981298373031905e-07
0.8669458276853254 -0.3417995071160349 6.08341795276671e-06
0.8772172098149736 -0.34141501793433 6.863545322537975e-06
0.887465509419707 -0.34103139280198125 7.641919543935918e-06
0.897690804221048 -0.3406486288096349 8.41854650467386e-06
0.9078928660814882 -0.340267851696648 -7.572809113885258e-07
0.9180725528383137 -0.33988623572638943 4.996806885768327e-06
0.9282291942792488 -0.33950659836565233 8.095565511959656e-07
0.9383633757861729 -0.3391266870482888 6.549032303400092e-06
0.9484748170706978 -0.33874818431919457 7.322546327916218e-06
0.9585635758801111 -0.33837164164124645 -1.800928693933544e-06
0.968630034205122 -0.33799482152716626 -1.0198361846744628e-06
0.9786741319847562 -0.3376182841878552 4.696148930415435e-06
0.9886958385958623 -0.3372436935280722 5.371413535846573e-07
0.9986953314979173 -0.3368699331707768 -3.6126475354678643e-06
1.008672670242314 -0.33649644847789156 -2.8330090698407797e-06
1.0186279099146471 -0.33612379102615286 -2.055097446117628e-06
1.028561030378206 -0.335750859193247 8.539746488311485e-06
1.0384723850809956 -0.33538094687674125 -5.044318261336164e-07
1.0483617662853113 -0.3350107547246522 2.6833356109293875e-07
1.0582294348159136 -0.3346419247171018 -3.853713287491871e-06
1.0680752887155802 -0.334273361330516 -3.078960055782554e-06
1.0778992251351178 -0.3339045220730494 7.45875120157731e-06
1.0877020761585436 -0.3335386647443699 -1.5345620680438718e-06
1.0974828356332529 -0.33317144415192257 8.978313595886664e-06
1.1072427777095948 -0.3328071906423459 3.061979612213536e-09
1.1169810230747623 -0.3324426554046951 7.693476816677095e-07
1.1266981635735025 -0.33207945535484673 -3.3216825911977834e-06
1.136393433359784 -0.3317154391115633 7.147209341731359e-06
1.1460684146546187 -0.33135436059614604 -1.7868686839727625e-06
1.1557218536135732 -0.330992999353938 -1.021972438870986e-06
1.1653542602339018 -0.33063242542411003 -2.5874270917501345e-07
1.1749657031768241 -0.33027263623643877 5.028259554601013e-07
1.1845565475702975 -0.32991415973089905 -3.5612398236393303e-06
1.1941262829986252 -0.3295559312100794 -2.797737860264591e-06
1.203675258882471 -0.32919847979129857 -2.0358921600512986e-06
-0.3009432589838855 -0.22388185983696923 1.4999997082450802
-0.29265784554754537 -0.22356203435359426 1.5000002082952684
-0.28439742570706783 -0.22324335688356808 1.4999991242538462
-0.2761591774754506 -0.2229253517646088 1.4999996237118238
-0.2679443662553618 -0.22260825133915088 1.5000001217488892
-0.2597542156907653 -0.22229228529550699 1.4999990424485956
-0.251585968997713 -0.22197698205138156 1.4999995398978077
-0.24344086145007957 -0.22166257200354264 1.500000035937838
-0.2353200872028911 -0.22134928292818276 1.4999989613374083
-0.2272209536613877 -0.2210366472705885 1.4999994567938983
-0.21914466642525643 -0.2207248935060593 1.4999999508527848
-0.21109239060353227 -0.22041424752230168 1.4999988809114864
-0.2030614967956283 -0.22010424574067583 1.4999993743911013
-0.19505316137355053 -0.21979511473881172 1.4999998664845593
-0.18706852083543993 -0.21948707853917832 1.4999988011621856
-0.17910500799830176 -0.21917967748857953 1.499999292680586
-0.17116377044502892 -0.2188731362903858 1.4999997828241294
-0.16324351320136032 -0.218567225559582 1.5000018211129358
-0.1553489402101047 -0.2182628442139948 1.4999992116536671
-0.14747396082907233 -0.21795886041041118 1.4999996998626322
-0.13962088656701224 -0.21765572217112183 1.5000001867135904
-0.1317907888118237 -0.2173536492545335 1.4999991313017957
-0.12398124185920302 -0.21705219097501396 1.4999996175913437
-0.11619332777901832 -0.216751567751426 1.5000001025338463
-0.1084280907440524 -0.2164519975517521 1.4999990516165784
-0.1006820396837232 -0.21615281263148012 1.5000010684000253
-0.09295960265483705 -0.2158548940754733 1.5000000190505807
-0.08525842364874307 -0.2155577956180219 1.499998972589745
-0.07757731869651129 -0.21526129487362602 1.4999994550852336
-0.06991731550944544 -0.21496560868509407 1.4999999362551928
-0.06227724946967771 -0.2146705158969715 1.5000019379938958
-0.054661336142465246 -0.21437688379330344 1.4999993748336684
-0.047064109975103276 -0.21408362063951575 1.4999998541392077
-0.03948764110946885 -0.21379115874550786 1.5000003321351758
-0.03193288587177102 -0.21349971026558992 1.4999992952388452
-0.02439663592934204 -0.21320862563730986 1.5000012842198156
-0.01688295439421368 -0.21291876218074732 1.5000002488505673
-0.009389675267652173 -0.21262968581006855 1.4999992162927265
-0.0019157100548805655 -0.21234118022139611 1.49999969191228
0.00553800061111641 -0.21205345648676957 1.5000001662429014
0.01297055106812235 -0.2117667233827216 1.499999137987421
0.02038400761214586 -0.21148055327903825 1.4999996117850847
0.02777745490665648 -0.21119515556121518 1.500000084303953
0.03515001206744104 -0.21091073734690094 1.4999990603151498
0.04250369174112347 -0.21062687448354464 1.4999995323047899
0.04983760351764734 -0.21034377469012586 1.5000000030256413
0.057150890929890404 -0.21006164344499667 1.4999989832682727
0.06444551377862769 -0.20978006003091987 1.4999994534635819
0.07172060621664537 -0.20949923052007288 1.4999999224000014
0.07897533583913627 -0.2092193587707918 1.4999989068392678
0.08621161039031723 -0.2089400274594903 1.49999937525379
0.09342858822839503 -0.208661441030951 1.4999998424192078
0.100626346437363 -0.2083835965096135 1.5000003083405133
0.10780408415453337 -0.20810669562313666 1.4999992976678578
0.11496364091787248 -0.20783032550942723 1.4999997630755564
0.12210420681446534 -0.20755468847294253 1.500000227248749
0.12922500423935063 -0.20727998466516126 1.4999992206983548
0.1363278224619346 -0.20700580452301715 1.499999684361459
0.14341187496414165 -0.20673234876768923 1.500000146799561
0.15047640706358587 -0.2064598159927806 1.4999991443379594
0.15752315850505183 -0.20618779989477862 1.499999606269459
0.1645513658276837 -0.2059164996300068 1.5000000669853468
0.17156029694214378 -0.20564611225221635 1.4999990685794675
