ply
format ascii 1.0
element vertex 808
property float x
property float y
property float z
end_header
0.17747229474493234 -0.039283927616504774 1.4979676279908403
0.18542837768849693 -0.03773010576939873 1.4979711899789416
0.19336070604331726 -0.036180923190035914 1.4979747413319684
0.20126850540533045 -0.03463749985949418 1.4979766260591716
0.20915452326639933 -0.0330963929727798 1.4979818123227466
0.21701536199349836 -0.03156213816795232 1.497983680946622
0.22485373785357207 -0.030031303063877732 1.4979871926861936
0.23266804293331025 -0.028506131984245273 1.4979890478075404
0.24046007211595577 -0.02698434696317614 1.497992541218124
0.24822907707970013 -0.025467058577147313 1.4979960243062271
0.25597434787597023 -0.023955364219364367 1.4979978582001805
0.2636984213455252 -0.022445892223981974 1.4980029596974682
0.27139816996962585 -0.020943085536053636 1.498004778002711
0.2790753173939817 -0.019444690061502623 1.4980065909706581
0.2867307367095306 -0.017949582177893723 1.4980100279197652
0.2943637341769036 -0.01645885329438636 1.4980134548024377
0.30197516313106065 -0.01497138642408175 1.4980184961818697
0.3095621107664791 -0.013491550374346978 1.4980186563980782
0.31712843981747985 -0.012013840488074063 1.4980220557142094
0.3246720097549558 -0.010541521657415948 1.4980238277125493
0.332194380283524 -0.009072395528838208 1.4980272096304132
0.3396949105045842 -0.007607534833117287 1.4980305817292778
0.34717299544883823 -0.006147999791735191 1.4980323336734516
0.35463013843661384 -0.004691611300361498 1.4980356885967825
0.36206572435671086 -0.003239432928777373 1.498039033821714
0.3694791734449341 -0.0017925158987683748 1.49804076599196
0.3768719335643318 -0.00034870010281308136 1.4980440942602535
0.38424341497948156 0.0010909599341524716 1.4980474129487407
0.39159370942862826 0.002526482128731932 1.4980507220987214
0.398922270132784 0.0039568270834104274 1.4980524275673306
0.40623047242219673 0.005384129960117102 1.498055720051158
0.4135177597689552 0.006807348117130477 1.4980590031124068
0.42078360967570366 0.008225450894983992 1.49806068944827
0.42802934410982574 0.009640555030773814 1.498063956053641
0.4352544309879229 0.0110516266641048 1.4980672133504376
0.44245837171047814 0.012457643764511389 1.498068880817475
0.4496424357511656 0.013860704882330228 1.4980721218651036
0.4568061150841113 0.015259784828672842 1.498075353716296
0.4639489346308123 0.016653870094822436 1.4980770025737777
0.47107211222388806 0.018045041278343294 1.4980802183790503
0.47817516351503203 0.01943228175384622 1.4980834250981716
0.4852576365767522 0.020814586428858185 1.4980850556008167
0.492320698437134 0.022194018178161464 1.498088246473865
0.4993638880523818 0.02356956883362445 1.498091428369246
0.4993552896468143 0.01105058389104221 1.4766984801545004
0.4993470023615401 -0.0017925170473841673 1.4547514914955793
0.49933849699665017 -0.014973583725344299 1.4322269686190123
0.49932976482924046 -0.028506134342736106 1.409101810890358
0.4993207966649079 -0.04240441778943346 1.3853516690324492
0.4993115828054672 -0.05668346369090159 1.3609508596047148
0.49930268464567623 -0.07135791348581241 1.3358741722404708
0.4992929561705772 -0.08644693708079337 1.3100892262434427
0.4992817737741191 -0.10196964850698223 1.2835635622761765
0.4992720567760706 -0.11793835819250285 1.2562751678558794
0.4992614487127709 -0.13437805143468715 1.228182126862734
0.49925052400213166 -0.1513084643285685 1.199250517467604
0.49923926825160997 -0.16875190150722405 1.1694422243016496
0.4992276661830072 -0.18673204014620348 1.1387167865209062
0.4992150583676961 -0.2052755852148127 1.1070287832884513
0.4992027037079397 -0.2244062443438186 1.0743372769834458
0.4991899505255665 -0.2441539986002348 1.0405912451070831
0.499176779221841 -0.2645491957796478 1.0057388277028216
0.49916316889150286 -0.28562420678642064 0.9697247076163216
0.4991490972120293 -0.30741359707687677 0.9324898175239797
0.4991338304750558 -0.3299562007011813 0.8939680319075866
0.49911802803915317 -0.3532898082341466 0.8540945442651592
0.4991023964512852 -0.3774547749059888 0.812800149191104
0.49908694510014107 -0.40249633740241014 0.7700075309196254
0.49906939650118837 -0.4284695982806346 0.7256232745165684
0.4990519626029507 -0.4554207675028503 0.6795676666325118
0.4990346501051663 -0.4834061326401768 0.6317445056676071
0.44419023226856036 -0.6780119860223579 0.31743106348697286
0.45506672476932203 -0.6780119861185544 0.3138055661382377
0.46594321727008375 -0.6780119862147538 0.3101800687895025
0.4768197097708454 -0.6780119863109503 0.3065545714407673
0.4876962022716071 -0.6780119864071469 0.3029290740920322
0.4985726947723688 -0.6780119865033435 0.2993035767432915
0.5094491872731305 -0.67801198659954 0.2956780793945563
0.5203256797738894 -0.6780119866957394 0.29205258204582113
0.5312021722746512 -0.6780119867919359 0.28842708469708594
0.5420786647754129 -0.6780119868881325 0.2848015873483508
0.5529551572761745 -0.6780119869843291 0.28117608999961013
0.5638316497769362 -0.6780119870805283 0.27755059265087495
0.574708142277698 -0.678011987176725 0.27392509530213976
0.5855846347784597 -0.6780119872729216 0.2702995979534046
0.5964611272792213 -0.678011987369118 0.26667410060466945
0.607337619779983 -0.6780119874653147 0.26304860325592877
0.6182141122807447 -0.6780119875615139 0.2594231059071936
0.6290906047815064 -0.6780119876577105 0.2557976085584584
0.6399670972822681 -0.6780119877539071 0.25217211120972327
0.6508435897830298 -0.6780119878501036 0.24854661386098809
0.6617200822837915 -0.6780119879463002 0.2449211165122529
0.6725965747845505 -0.6780119880424995 0.24129561916351222
0.6834730672853121 -0.6780119881386961 0.23767012181477706
0.6943495597860738 -0.6780119882348927 0.23404462446604188
0.7052260522868355 -0.6780119883310892 0.23041912711730672
0.7161025447875972 -0.6780119884272886 0.22679362976857154
0.7269790372883589 -0.6780119885234852 0.22316813241983086
0.7378555297891206 -0.6780119886196817 0.2195426350710957
0.7487320222898823 -0.6780119887158783 0.2159171377223605
0.759608514790644 -0.6780119888120749 0.21229164037362536
0.7704850072914057 -0.6780119889082742 0.2086661430248902
0.7813614997921674 -0.6780119890044708 0.20504064567614952
0.7922379922929291 -0.6780119891006673 0.20141514832741433
0.8031144847936907 -0.6780119891968639 0.19778965097867918
0.8139909772944525 -0.6780119892930632 0.194164153629944
0.8248674697952114 -0.6780119893892598 0.19053865628120883
0.8357439622959731 -0.6780119894854564 0.18691315893246815
0.8466204547967348 -0.6780119895816529 0.18328766158373297
0.8574969472974965 -0.6780119896778495 0.1796621642349978
0.8683734397982582 -0.6780119897740489 0.17603666688626263
0.8792499322990199 -0.6780119898702454 0.17241116953752747
0.8901264247997815 -0.678011989966442 0.1687856721887868
0.9010029173005433 -0.6780119900626386 0.16516017484005163
0.911879409801305 -0.6780119901588378 0.16153467749131645
0.9227559023020667 -0.6780119902550344 0.1579091801425813
0.9336323948028283 -0.6780119903512309 0.1542836827938461
0.9445088873035901 -0.6780119904474275 0.15065818544510542
0.9553853798043518 -0.6780119905436242 0.14703268809637027
0.9662618723051134 -0.6780119906398234 0.14340719074763508
0.9771383648058724 -0.67801199073602 0.13978169339889993
0.9880148573066341 -0.6780119908322165 0.13615619605016474
0.9988913498073958 -0.6780119909284131 0.13253069870142406
1.0097678423081575 -0.6780119910246097 0.1289052013526889
1.0206443348089191 -0.678011991120809 0.12527970400395372
1.031520827309681 -0.6780119912170056 0.12165420665521856
1.0423973198104426 -0.6780119913132022 0.11802870930648339
1.0532738123112042 -0.6780119914093987 0.11440321195774271
1.064150304811966 -0.6780119915055981 0.11077771460900754
1.0750267973127277 -0.6780119916017946 0.10715221726027237
1.0859032898134893 -0.6780119916979912 0.1035267199115372
1.096779782314251 -0.6780119917941878 0.09990122256280203
1.1076562748150127 -0.6780119918903843 0.09627572521406134
1.1185327673157743 -0.6780119919865837 0.09265022786532617
1.1294092598165333 -0.6780119920827802 0.089024730516591
1.1402857523172951 -0.6780119921789768 0.08539923316785583
1.1511622448180567 -0.6780119922751734 0.08177373581912067
1.1620387373188186 -0.6780119923713727 0.07814823847038
1.1729152298195802 -0.6780119924675693 0.07452274112164482
1.1837917223203418 -0.6780119925637659 0.07089724377290965
1.1946682148211036 -0.6780119926599624 0.06727174642417448
1.2055447073218652 -0.678011992756159 0.06364624907543931
1.2164211998226269 -0.6780119928523582 0.06002075172669863
1.2272976923233887 -0.6780119929485549 0.05639525437796346
1.2381741848241503 -0.6780119930447515 0.05276975702922829
1.249050677324912 -0.678011993140948 0.049144259680493116
1.2599271698256738 -0.6780119932371473 0.045518762331757945
1.2708036623264327 -0.6780119933333439 0.04189326498301727
1.2816801548271943 -0.6780119934295404 0.0382677676342821
1.292556647327956 -0.678011993525737 0.03464227028554693
1.3034331398287178 -0.6780119936219337 0.031016772936811758
1.3143096323294794 -0.6780119937181329 0.027391275588076587
1.3251861248302412 -0.6780119938143295 0.02376577823933591
1.3360626173310028 -0.678011993910526 0.02014028089060074
1.3469391098317645 -0.6780119940067226 0.016514783541865568
-0.4370392306354707 -0.16831032686743735 1.49773357093652
-0.42713065918452964 -0.1663612339304875 1.497736084208984
-0.4172533464253859 -0.16441719800709992 1.4977404411057496
-0.40740890495853593 -0.16247963175563837 1.497744783502942
-0.3975988882082398 -0.16054992891227562 1.4977472656404824
-0.38781968411222784 -0.1586252007649585 1.4977515823213607
-0.3780728631919302 -0.15670684622526643 1.4977558847078412
-0.36836161082821284 -0.15479765743946802 1.4977564995309516
-0.3586773879959228 -0.15289053897059787 1.497762613249183
-0.3490283867383401 -0.1509925144044479 1.4977650455922722
-0.33940784489607234 -0.14909793311064912 1.4977711251313406
-0.32982215299840056 -0.1472123654647402 1.497773535518763
-0.32026626714916545 -0.1453315869503205 1.4977777596040072
-0.31074166249937946 -0.14345696516577075 1.4977819698616988
-0.30124975843878027 -0.14158984969589172 1.4977843507277238
-0.29178724316206306 -0.1397274465247023 1.4977885365003287
-0.28235709697473416 -0.1378724809447709 1.4977908989259767
-0.27295606597527416 -0.13602217731536653 1.497795060442502
-0.26358555952635676 -0.13417788150432125 1.4977992084468448
-0.2542454292020284 -0.13233956429856042 1.497803343004707
-0.2449370176070496 -0.13050854978408802 1.497805666199124
-0.23565718459277232 -0.1286820985358476 1.4978097769691836
-0.2264087513977169 -0.12686288380027608 1.4978120823014647
-0.21719008355864453 -0.12504952406447448 1.4978143802142159
-0.2079996010426129 -0.12324065533690051 1.4978184571555013
-0.19883720085344495 -0.12143626243326357 1.4978243045435502
-0.18970842155134518 -0.11964163910290873 1.4978247911577318
-0.1806046212007041 -0.11784878148891596 1.4978306096974552
-0.17153269826187462 -0.1160642939282352 1.4978328596815094
-0.1624896932466496 -0.11428549465164675 1.4978351024934458
-0.15347275086482834 -0.1125097357603554 1.4978408768103222
-0.14448584798635225 -0.11074093387359794 1.4978448662548383
-0.1355301431412087 -0.10898035169679109 1.4978453156440683
-0.1266001425604851 -0.10722274602266599 1.497849285417281
-0.11769709507894248 -0.10546940889888286 1.497855000733078
-0.10882479119659964 -0.10372419547562889 1.4978571873331832
-0.09998045671516866 -0.10198448373204604 1.4978593670401639
-0.09116141746281427 -0.10024768440286402 1.4978650394701705
-0.0823726509019788 -0.09851890630688329 1.4978671999845259
-0.07361145993576627 -0.09679555241731887 1.4978693537200576
-0.06487524576707433 -0.09507505800018196 1.4978749838164414
-0.05616761948807982 -0.09336121850311913 1.4978788574593511
-0.047489627548337444 -0.09165525848778032 1.4978792467918556
-0.03883507742989814 -0.08995084045225538 1.4978848350969538
-0.03020869711935456 -0.08825299023690267 1.4978886752963947
-0.021609150171509255 -0.08656042138279255 1.497892503550451
-0.013037475142686689 -0.08487435536111139 1.4978945946120699
-0.004491209066408406 -0.08319227170852429 1.4978984018213783
0.004028596285165707 -0.0815153960791911 1.497902197242906
0.012519805709777858 -0.07984617342324271 1.4979025463408837
0.02098707977156723 -0.07817963392411409 1.4979063236597465
0.02942936501609841 -0.07651700352565444 1.4979118013335144
0.037842368357232065 -0.07486316256672174 1.4979121340659118
0.046231729174604795 -0.07321195650206763 1.4979158792522247
0.0545953540338081 -0.07156581582572345 1.4979196129494636
0.06293229970247045 -0.06992592923756412 1.4979216337111816
0.07124481767759087 -0.06828984595784332 1.4979253471943736
0.07953195219861237 -0.06665875869075771 1.49792904933792
0.08779279076607387 -0.06503384550207901 1.497931046484905
0.09602951678337936 -0.06341267819867177 1.497934728686681
0.10424120544251046 -0.0617964387933596 1.497938399695594
0.11242697447230629 -0.060186294858857514 1.497940373573273
0.12058894034134635 -0.058579840476920254 1.4979440249078015
0.12872620868494328 -0.056978247111140884 1.4979476651936552
0.13683792696526917 -0.05538267197976946 1.4979496161409886
0.14492614585153538 -0.05379073113345122 1.4979532370150497
0.15299000092294085 -0.05220358562620539 1.497956846982098
0.16102866888943618 -0.05062238245798292 1.4979587753317418
0.1690441357335762 -0.049044759347929574 1.497962366144908
0.1770355664885253 -0.04747186707770571 1.4979659461902546
0.1850021666356744 -0.045904842562775966 1.497967852268677
0.19294585856143598 -0.0443413448958482 1.4979714134134627
0.2008658362723348 -0.04278251472106022 1.4979749639271995
0.20876133355386844 -0.04122947900089761 1.4979768480548652
0.2166342102651368 -0.03967991791204504 1.4979803799168856
0.22448368891453943 -0.038134962093610295 1.4979839012822662
0.23230987365529426 -0.03659459104587235 1.4979874121977377
0.2401120353004132 -0.035059918660541506 1.49798926673185
0.24789195196403674 -0.03352865278650003 1.497992759325443
0.25564888343950054 -0.03200191092418815 1.4979962416004273
0.2633821277873267 -0.030480797310483063 1.4979980749159967
0.27109340300694457 -0.028963040222618166 1.4980015391078048
0.278781996327673 -0.027449747456391144 1.4980049931100599
0.2864472326188019 -0.025942013718001627 1.498006805508315
0.2940907707652819 -0.024437587440401285 1.4980102416619465
0.30171192498984734 -0.022937566839814124 1.4980136677528797
0.3093100465399651 -0.02144303721381653 1.49801545952957
0.31688747382954924 -0.019950665484195378 1.4980204899229643
0.32444133465222247 -0.018464844607843166 1.4980222665371754
0.33197321919924244 -0.01698334639640769 1.4980240379827205
0.33948393338689387 -0.015505060194745159 1.4980274191258809
0.3469728441298754 -0.014031065426706825 1.4980307904536574
0.3544400462329847 -0.01256134343246546 1.4980341520087255
0.3618849508631892 -0.011096958018534896 1.4980358960119955
0.3693090268326021 -0.009635722897541851 1.4980392404758895
0.3767116752507148 -0.008178705229418834 1.4980425752869064
0.3840923322840689 -0.006726959804261981 1.4980442996232723
0.3914524117447315 -0.005278319363585855 1.4980476175606066
0.3987913399109016 -0.003833842005759151 1.4980509259628974
0.4061085775514865 -0.002394573617875156 1.4980526309057274
0.41340548437966007 -0.0009583657223399201 1.4980559226481065
0.42068212449347053 0.0004747902575107857 1.4980607943687663
0.4279361437191029 0.001900684042927822 1.498060890789129
0.43517068770988804 0.003324618757438512 1.4980641566625967
0.4423846188353654 0.00474449635728986 1.4980674132308438
0.4495774459063953 0.0061592884285907815 1.4980690801874068
0.4567504230732841 0.007571106614080379 1.4980723205125208
0.463903049746137 0.008978919322222728 1.4980755516444935
0.47103485818946284 0.01038170671297994 1.498077199998951
0.4781470510562755 0.011781562366795518 1.498080415090929
0.4852391513665087 0.013177463307983717 1.4980836210999922
0.4923112441448606 0.014569426271513874 1.498086818064583
0.4993634139369834 0.01595746789806304 1.4980900060229174
0.49935479835748553 0.003324618189762254 1.4766694540075294
0.49934649385853874 -0.009635724047658008 1.454693419945429
0.49933742831192146 -0.022938676447110666 1.4321366239680693
0.4993286701562718 -0.03659573104600051 1.4089792211524554
0.4993196749793378 -0.050622385449998863 1.3851951113477516
0.49931043302740374 -0.06503384914174783 1.360758504797206
0.49930093400414205 -0.07984617772858109 1.3356421770239852
0.4992917475495817 -0.09507506298995955 1.3098193272368182
0.4992817094461752 -0.11074093956740262 1.2832556894121523
0.49927018518352795 -0.12686423461881594 1.2559168336484876
0.49926014004231656 -0.14345835661670397 1.2277790327548797
0.49924917935391555 -0.1605499368444525 1.198797922280189
0.49923726139949376 -0.17816168470256466 1.168935004383596
0.4992262446911907 -0.19631316754522013 1.1381564762547174
0.4992142390030484 -0.21503427105460926 1.106412286321192
0.49920185158723607 -0.23435062267316595 1.0736587718558321
0.49918906394377843 -0.25429107039719573 1.0398470171377587
0.4991751803629209 -0.27488807773979546 1.0049222008068655
0.4991615204987484 -0.29617105663138654 0.9688340047430424
0.4991473968160925 -0.31817669563466994 0.9315204398090455
0.4991320742022157 -0.34094434087221775 0.8929150259027302
0.4991176601807613 -0.3645083555930282 0.8529587855849571
0.49910125737927974 -0.3889194353490526 0.8115667125718282
0.4990842569941626 -0.414219854763851 0.7686666516918266
0.49906738971517756 -0.44045691915131024 0.7241781366438192
0.4990498847512085 -0.46768590298618967 0.6780076871152168
0.4344068683385619 -0.6889432728851149 0.32433594685706424
0.4452833608393236 -0.6889432729813115 0.32071044950832356
0.4561598533400853 -0.6889432730775081 0.3170849521595884
0.467036345840847 -0.6889432731737074 0.3134594548108532
0.4779128383416087 -0.688943273269904 0.30983395746211806
0.4887893308423704 -0.6889432733661005 0.3062084601133829
0.4996658233431321 -0.6889432734622971 0.3025829627646422
0.5105423158438938 -0.6889432735584937 0.298957465415907
0.5214188083446527 -0.688943273654693 0.2953319680671719
0.5322953008454144 -0.6889432737508896 0.2917064707184367
0.5431717933461762 -0.6889432738470861 0.2880809733697015
0.5540482858469378 -0.6889432739432827 0.28445547602096083
0.5649247783476995 -0.6889432740394821 0.28082997867222564
0.5758012708484612 -0.6889432741356786 0.2772044813234905
0.586677763349223 -0.6889432742318752 0.27357898397475533
0.5975542558499846 -0.6889432743280718 0.26995348662602014
0.6084307483507463 -0.6889432744242683 0.26632798927727946
0.619307240851508 -0.6889432745204677 0.2627024919285443
0.6301837333522697 -0.6889432746166642 0.25907699457980915
0.6410602258530314 -0.6889432747128608 0.25545149723107397
0.6519367183537931 -0.6889432748090574 0.2518259998823388
0.6628132108545548 -0.6889432749052539 0.24820050253360362
0.6736897033553138 -0.6889432750014532 0.24457500518486294
0.6845661958560754 -0.6889432750976497 0.24094950783612779
0.6954426883568371 -0.6889432751938463 0.2373240104873926
0.7063191808575988 -0.688943275290043 0.23369851313865744
0.7171956733583605 -0.6889432753862422 0.23007301578992226
0.7280721658591222 -0.6889432754824388 0.22644751844118158
0.7389486583598839 -0.6889432755786354 0.22282202109244642
0.7498251508606456 -0.6889432756748319 0.21919652374371124
0.7607016433614073 -0.6889432757710285 0.21557102639497608
0.771578135862169 -0.6889432758672278 0.2119455290462409
0.7824546283629307 -0.6889432759634244 0.20832003169750024
0.7933311208636924 -0.688943276059621 0.20469453434876506
0.804207613364454 -0.6889432761558175 0.2010690370000299
0.8150841058652157 -0.6889432762520169 0.1974435396512947
0.8259605983659747 -0.6889432763482134 0.19381804230255956
0.8368370908667364 -0.68894327644441 0.19019254495381888
0.8477135833674981 -0.6889432765406066 0.1865670476050837
0.8585900758682598 -0.6889432766368031 0.18294155025634853
0.8694665683690215 -0.6889432767330025 0.17931605290761335
0.8803430608697832 -0.6889432768291991 0.1756905555588782
0.8912195533705448 -0.6889432769253956 0.1720650582101375
0.9020960458713065 -0.6889432770215922 0.16843956086140233
0.9129725383720683 -0.6889432771177915 0.16481406351266717
0.92384903087283 -0.6889432772139881 0.16118856616393198
0.9347255233735916 -0.6889432773101847 0.15756306881519683
0.9456020158743533 -0.6889432774063812 0.15393757146645615
0.956478508375115 -0.6889432775025778 0.150312074117721
0.9673550008758768 -0.688943277598777 0.1466865767689858
0.9782314933766357 -0.6889432776949737 0.14306107942025065
0.9891079858773973 -0.6889432777911703 0.13943558207151546
0.9999844783781591 -0.6889432778873668 0.13581008472277478
1.0108609708789207 -0.6889432779835634 0.13218458737403962
1.0217374633796825 -0.6889432780797627 0.12855909002530444
1.0326139558804441 -0.6889432781759592 0.12493359267656928
1.0434904483812057 -0.6889432782721558 0.12130809532783411
1.0543669408819676 -0.6889432783683525 0.11768259797909343
1.0652434333827292 -0.6889432784645517 0.11405710063035826
1.076119925883491 -0.6889432785607483 0.11043160328162309
1.0869964183842526 -0.6889432786569448 0.10680610593288792
1.0978729108850143 -0.6889432787531414 0.10318060858415275
1.108749403385776 -0.688943278849338 0.09955511123541207
1.1196258958865377 -0.6889432789455373 0.0959296138866769
1.1305023883872967 -0.6889432790417339 0.09230411653794172
1.1413788808880583 -0.6889432791379304 0.08867861918920655
1.1522553733888201 -0.688943279234127 0.08505312184047138
1.1631318658895817 -0.6889432793303264 0.08142762449173072
1.1740083583903433 -0.6889432794265229 0.07780212714299554
1.1848848508911052 -0.6889432795227195 0.07417662979426037
1.1957613433918668 -0.6889432796189161 0.0705511324455252
1.2066378358926286 -0.6889432797151126 0.06692563509679003
1.2175143283933902 -0.688943279811312 0.06330013774804935
1.2283908208941519 -0.6889432799075085 0.05967464039931418
1.2392673133949137 -0.6889432800037051 0.05604914305057901
1.2501438058956753 -0.6889432800999017 0.05242364570184384
1.261020298396437 -0.688943280196101 0.04879814835310867
1.2718967908971959 -0.6889432802922976 0.045172651004367986
1.2827732833979577 -0.6889432803884941 0.04154715365563282
1.2936497758987193 -0.6889432804846907 0.03792165630689765
1.304526268399481 -0.6889432805808873 0.03429615895816248
1.3154027609002428 -0.6889432806770865 0.030670661609427306
1.3262792534010044 -0.6889432807732832 0.02704516426068663
1.3371557459017662 -0.6889432808694798 0.023419666911951457
1.3480322384025278 -0.6889432809656763 0.01979416956321629
-0.4384608977492775 -0.17765490809812534 1.4977276159324098
-0.42853141830549824 -0.1756843435137483 1.4977338587633586
-0.41863861634244626 -0.17372326089429266 1.4977363711554232
-0.4087770260283416 -0.17176726535634093 1.4977407268812206
-0.3989482494731265 -0.16981777825809533 1.4977450681136355
-0.3891521231705601 -0.16787476716893973 1.4977493949248966
-0.37939017649025214 -0.16593962987226307 1.4977518649128436
-0.36965884978713015 -0.1640094696373933 1.4977561661519279
-0.35995968937711076 -0.16208568942672186 1.4977604531735413
-0.35029418394792233 -0.16016967353977424 1.4977628927055577
-0.34065886505193554 -0.158258554181854 1.4977671545280844
-0.331055238006822 -0.15635372075077522 1.4977714023329074
-0.32148475152022726 -0.1544565442547123 1.4977738118879325
-0.3119440266984278 -0.15256418540206176 1.4977780348595047
-0.30243452856979425 -0.15067802022026622 1.4977822440093282
-0.29295922902473703 -0.14880079488216433 1.4977828087037053
-0.28351014968942856 -0.14692553337361738 1.4977888087319335
-0.2740934034234254 -0.14505776334360024 1.4977929797777427
-0.2647087985474951 -0.143197441513624 1.4977953307771616
-0.2553531304863276 -0.141341784333898 1.4977994777002546
-0.24602778575900783 -0.13949214165915294 1.4978036111824582
-0.23673409720268043 -0.1376498457428621 1.4978059335846459
-0.22746894507484644 -0.13581214029055289 1.4978100432891968
-0.21823367764673066 -0.13398036234756863 1.49781413973792
-0.2090310303282161 -0.13215717994338508 1.497814644970027
-0.19985364704789407 -0.13033581864132884 1.497820506994094
-0.19070715813715428 -0.12852164785527548 1.4978245669293981
-0.18158998211636976 -0.12671329116784807 1.4978286138533194
-0.17250475319357428 -0.12491338293877471 1.497829092730648
-0.16344575594845973 -0.12311656241374294 1.4978331195068053
-0.15441429067997273 -0.12132415019011622 1.4978389053115229
-0.1454156533591063 -0.11954140531258745 1.4978393655400466
-0.13644157501929785 -0.11776037725965827 1.4978451230198848
-0.12749732784872028 -0.11598631701190658 1.4978490987889796
-0.11858273858217347 -0.11421918520689645 1.4978513013314283
-0.10969633666811653 -0.11245764095792482 1.4978534969095845
-0.10083670243968959 -0.11070036009323099 1.4978574406194136
-0.09200628796350288 -0.1089499158320535 1.497859619599212
-0.08320113965215514 -0.1072024011227382 1.4978652907789765
-0.07442494789094081 -0.10546167081161781 1.4978691973458602
-0.06567878304275168 -0.1037289683568018 1.497869603594314
-0.05695631705665681 -0.10199785670513105 1.4978752324568672
-0.04826238248406255 -0.10027344023258036 1.4978791051323477
-0.03959801681119298 -0.09855695106845165 1.497879494020433
-0.030957074290129363 -0.09684201260254247 1.4978850811078197
-0.02234424591195094 -0.0951336817026394 1.4978889203534234
-0.013760536832045518 -0.09343317932213513 1.4978892921868059
-0.005199980470140059 -0.0917341884453486 1.4978948380314725
0.00333172851383085 -0.09004296897824894 1.4978969219281257
0.011839307848131194 -0.08835448914189063 1.4979024387859294
0.020317211800585485 -0.08667495865410295 1.4979027874596909
0.02877231564408262 -0.08499688878360308 1.4979082782401583
0.03720024941324137 -0.08332522808424028 1.497912040348525
0.04560008132814739 -0.08166117201082097 1.4979123726649421
0.053976296989547444 -0.07999976635653372 1.4979161169358974
0.06232682077806055 -0.07834345663394271 1.4979198497222743
0.07065071813847164 -0.07669343889380328 1.4979218698264525
0.0789502225256052 -0.07504724722235437 1.4979255824069138
0.08722438688902377 -0.07340608169873905 1.4979292836521336
0.09547434688421305 -0.07176871100601129 1.4979346670723035
0.1036961493673715 -0.07013994196111702 1.4979349614631956
0.1118949968434622 -0.06851371387923533 1.4979386315860894
0.12006797598690565 -0.06689361822558251 1.4979406048264037
0.12821718558804154 -0.0652772342182961 1.4979442552827547
0.13634173982249695 -0.06366574056754237 1.4979478946946776
0.14444079457823486 -0.062060301652116616 1.497949845014445
0.1525163830241055 -0.06045851879153772 1.4979534650222743
0.16056764919654137 -0.05886156022345244 1.4979570741272634
0.16859377814987767 -0.05727058004654708 1.4979590018589533
0.17659673854153485 -0.055683201379554625 1.4979625918176138
0.18457570378001306 -0.054100582125627905 1.4979661710125503
0.19253078162021958 -0.0525227009116974 1.497969739492109
0.20046119526790893 -0.05095069833778967 1.4979716367842517
0.20836882905235252 -0.0493822261294519 1.497975186459035
0.21625289480114246 -0.047818428620264995 1.4979787255543127
0.22411264379156107 -0.046260436440623345 1.4979806010177708
0.23194989834638907 -0.04470592243137994 1.4979841215554455
0.23976389856069585 -0.04315602090446254 1.4979876316471394
0.24755392332874254 -0.04161185264990382 1.4979894855942755
0.25532173400508273 -0.04007111133953877 1.4979929773711997
0.2630665984937021 -0.038534921393877195 1.4979964588333754
0.27078782285983377 -0.03700439388963673 1.4979982915708203
0.2784878944094824 -0.035476115165607204 1.4980033909957893
0.28616375069998085 -0.03395458353332028 1.4980052081570439
0.29381861612539323 -0.032435274283972255 1.4980102824433967
0.3014487455656767 -0.03092377743147109 1.4980104553443254
0.309058062871008 -0.02941447036733868 1.4980138806438343
0.31664439325374427 -0.027910687656878874 1.4980156718596038
0.3242093211912006 -0.026410183809370463 1.498019079547708
0.33175291580609534 -0.024912949339906183 1.498024096628464
0.33927311202301347 -0.02342228011906794 1.4980258651643377
0.3467714647358459 -0.021935940763870714 1.498027628563245
0.35424876215287454 -0.020452817042410105 1.4980309991202279
0.36170438759147144 -0.018973991963025703 1.4980343599080908
0.3691377599036538 -0.017500535926998635 1.4980361033699348
0.3765503319911047 -0.0160302491098939 1.4980394470730811
0.38394151267549714 -0.014564205286658909 1.4980427811268808
0.3913107457373476 -0.013103465787451848 1.4980445049298292
0.39865942923033626 -0.011645849931883643 1.4980478221162914
0.4059876282977235 -0.010191348903568518 1.4980527258080782
0.41329291757918585 -0.0087442355000592 1.4980528341884498
0.42057914880776137 -0.007298060176598017 1.4980577166500706
0.42784330750979993 -0.005858154068374622 1.4980594067751278
0.43508672800711706 -0.004422358700139035 1.4980610920751
0.4423100873819236 -0.002989598270017295 1.4980643572169483
0.44951286855610545 -0.0015609195462110929 1.4980676130569186
0.4566945877469718 -0.00013735732259504953 1.4980692795032293
0.46385648378980837 0.001283213128730859 1.4980725191060982
0.4709980635267408 0.002699753817033827 1.4980757495191155
0.4781188665614122 0.004111238574362682 1.498077397370761
0.48522008037546427 0.0055197739568809195 1.498080611749709
0.49230123535316667 0.006924330642030405 1.498083817048987
0.4993618941162951 0.008323890981022522 1.4980854465604228
0.49935377682954607 -0.004422359268548839 1.476638743362911
0.49934544815896675 -0.01750053707862031 1.4546335424320531
0.49933689973859846 -0.030923779181694203 1.4320477400434128
0.49932812275510907 -0.044705924796207885 1.4088580504773145
0.4993191079174942 -0.058861563219540856 1.3850399259393371
0.49930928007378905 -0.07340729737156483 1.360565618728427
0.49929975169268825 -0.08835698549804363 1.3354114373450439
0.4992899541532815 -0.10372897335367041 1.3095466990660674
0.4992798758873745 -0.11954141101459959 1.2829408647723033
0.4992695046542239 -0.13581350377380244 1.2555616198483037
0.4992594345942194 -0.15256419257675313 1.2273768923959512
0.4992484468633815 -0.16981778620220017 1.1983461818473453
0.49923712516605656 -0.18759579402836524 1.1684330976205803
0.4992248187887019 -0.2059240237274279 1.137594427430868
0.4992127718336009 -0.22482526411242915 1.1057914075288542
0.49920034122554546 -0.2443284422215087 1.0729755738099316
0.49918750834099795 -0.264462777710677 1.0390977616011676
0.49917357621660374 -0.28526115020605547 1.0041028733397035
0.49916055501983425 -0.3067515716985564 0.9679431003496234
0.49914569060571257 -0.3289765982095224 0.9305477473429021
0.49913102414067784 -0.35196878195459064 0.8918613550136778
0.49911584126203296 -0.3757705320598305 0.85181279534213
0.49910011420621436 -0.4004253726365939 0.8103288351431807
0.4990845645672933 -0.42597786566941437 0.7673342449113649
0.49906614080982653 -0.45248682050459044 0.7227310773692786
0.499049358791357 -0.47999313637196317 0.6764490019461319
0.4354999969093252 -0.6998745598440685 0.32761533287841493
0.4463764894100869 -0.6998745599402652 0.32398983552967425
0.4572529819108486 -0.6998745600364618 0.3203643381809391
0.4681294744116103 -0.699874560132661 0.31673884083220394
0.479005966912372 -0.6998745602288576 0.31311334348346875
0.4898824594131337 -0.6998745603250542 0.30948784613473357
0.5007589519138954 -0.6998745604212507 0.30586234878599294
0.511635444414657 -0.6998745605174473 0.30223685143725776
0.522511936915416 -0.6998745606136466 0.2986113540885226
0.5333884294161777 -0.6998745607098432 0.2949858567397874
0.5442649219169394 -0.6998745608060398 0.29136035939105226
0.5551414144177012 -0.6998745609022363 0.2877348620423116
0.5660179069184628 -0.6998745609984357 0.2841093646935764
0.5768943994192245 -0.6998745610946323 0.2804838673448412
0.5877708919199862 -0.6998745611908288 0.276858369996106
0.5986473844207479 -0.6998745612870254 0.2732328726473709
0.6095238769215096 -0.699874561383222 0.2696073752986302
0.6204003694222713 -0.6998745614794213 0.26598187794989503
0.631276861923033 -0.6998745615756179 0.26235638060115984
0.6421533544237946 -0.6998745616718144 0.25873088325242466
0.6530298469245563 -0.699874561768011 0.25510538590368953
0.6639063394253181 -0.6998745618642076 0.25147988855495435
0.674782831926077 -0.6998745619604069 0.24785439120621366
0.6856593244268387 -0.6998745620566035 0.2442288938574785
0.6965358169276004 -0.6998745621528 0.24060339650874332
0.7074123094283621 -0.6998745622489966 0.23697789916000817
0.7182888019291238 -0.699874562345196 0.23335240181127298
0.7291652944298854 -0.6998745624413925 0.2297269044625323
0.7400417869306471 -0.6998745625375891 0.22610140711379714
0.7509182794314089 -0.6998745626337857 0.22247590976506196
0.7617947719321706 -0.6998745627299822 0.2188504124163268
0.7726712644329322 -0.6998745628261815 0.21522491506759162
0.7835477569336939 -0.699874562922378 0.21159941771885094
0.7944242494344557 -0.6998745630185746 0.20797392037011578
0.8053007419352174 -0.6998745631147713 0.2043484230213806
0.816177234435979 -0.6998745632109705 0.20072292567264544
0.827053726936738 -0.6998745633071671 0.19709742832391025
0.8379302194374997 -0.6998745634033636 0.1934719309751696
0.8488067119382614 -0.6998745634995602 0.1898464336264344
0.859683204439023 -0.6998745635957568 0.18622093627769926
0.8705596969397847 -0.6998745636919561 0.18259543892896407
0.8814361894405465 -0.6998745637881527 0.17896994158022891
0.8923126819413082 -0.6998745638843493 0.17534444423148823
0.9031891744420698 -0.6998745639805458 0.17171894688275305
0.9140656669428315 -0.6998745640767452 0.1680934495340179
0.9249421594435933 -0.6998745641729417 0.1644679521852827
0.935818651944355 -0.6998745642691383 0.16084245483654755
0.9466951444451166 -0.6998745643653349 0.15721695748780687
0.9575716369458783 -0.6998745644615314 0.15359146013907168
0.96844812944664 -0.6998745645577308 0.14996596279033653
0.979324621947399 -0.6998745646539273 0.14634046544160134
0.9902011144481606 -0.6998745647501239 0.14271496809286618
1.0010776069489224 -0.6998745648463205 0.1390894707441255
1.011954099449684 -0.699874564942517 0.13546397339539035
1.0228305919504457 -0.6998745650387164 0.13183847604665516
1.0337070844512075 -0.699874565134913 0.12821297869792
1.0445835769519691 -0.6998745652311095 0.12458748134918482
1.0554600694527307 -0.6998745653273061 0.12096198400044415
1.0663365619534926 -0.6998745654235053 0.11733648665170898
1.0772130544542542 -0.699874565519702 0.11371098930297381
1.0880895469550158 -0.6998745656158986 0.11008549195423864
1.0989660394557776 -0.699874565712095 0.10645999460550347
1.1098425319565393 -0.6998745658082917 0.10283449725676279
1.120719024457301 -0.6998745659044909 0.09920899990802762
1.13159551695806 -0.6998745660006875 0.09558350255929245
1.1424720094588217 -0.6998745660968841 0.09195800521055728
1.1533485019595833 -0.6998745661930806 0.0883325078618221
1.164224994460345 -0.69987456628928 0.08470701051308142
1.1751014869611067 -0.6998745663854766 0.08108151316434625
1.1859779794618683 -0.6998745664816731 0.07745601581561108
1.1968544719626302 -0.6998745665778697 0.07383051846687591
1.2077309644633918 -0.6998745666740663 0.07020502111814074
1.2186074569641534 -0.6998745667702656 0.06657952376940007
1.2294839494649152 -0.6998745668664622 0.0629540264206649
1.2403604419656769 -0.6998745669626587 0.059328529071929724
1.2512369344664387 -0.6998745670588553 0.05570303172319455
1.2621134269672003 -0.6998745671550546 0.05207753437445939
1.2729899194679593 -0.6998745672512512 0.04845203702571871
1.2838664119687209 -0.6998745673474478 0.04482653967698354
1.2947429044694827 -0.6998745674436443 0.041201042328248366
1.3056193969702443 -0.6998745675398409 0.037575544979513195
1.316495889471006 -0.6998745676360403 0.033950047630778024
1.3273723819717678 -0.6998745677322368 0.030324550282037347
1.3382488744725294 -0.6998745678284334 0.02669905293330218
1.349125366973291 -0.69987456792463 0.02307355558456701
-0.4398833098620398 -0.18702492519359534 1.497725370538174
-0.42993818884827006 -0.18503714326936171 1.4977297658663447
-0.4200263201838786 -0.18305600766134056 1.4977341464983656
-0.41014753737416254 -0.18108148509138963 1.497738512507827
-0.400303400784787 -0.17911499565852143 1.4977410125658146
-0.3904902796853765 -0.17715359538513686 1.4977453526339877
-0.3807131435830711 -0.1752015967103718 1.4977459877892585
-0.3709633358091792 -0.1732517448289587 1.4977521474149196
-0.3612474940149629 -0.17130978645820005 1.4977564475071181
-0.35156376226592106 -0.16937424609756735 1.4977607333878704
-0.3419136190677388 -0.1674465165200091 1.4977631720739513
-0.3322952402958001 -0.1655251322601033 1.4977656027328494
-0.3227052520053756 -0.163607231663936 1.4977716794474862
-0.31314996186721916 -0.16169845368911667 1.4977740881705175
-0.30362596933172004 -0.15979592776669838 1.4977764890039644
-0.29413155467235214 -0.1578982218960655 1.497780700031147
-0.2846697117800451 -0.1560081128491024 1.4977830822306808
-0.2752356322373329 -0.15412138001349618 1.4977890808788137
-0.2658338219106601 -0.15224218352886618 1.4977932508334908
-0.2564640895158006 -0.15037047986338534 1.4977956010279494
-0.24712325109462663 -0.1485034684461539 1.4977997468702708
-0.2378141667483315 -0.14664388162125952 1.4978020789333424
-0.22853223910812112 -0.1447875673597997 1.4978079983141832
-0.21928322923490579 -0.14293998451190942 1.4978103095271282
-0.21006258216258203 -0.14109699475422643 1.497814404916279
-0.20087448368951605 -0.13926265223666195 1.497814909644497
-0.19171304448018017 -0.13743149329143756 1.497818984484334
-0.18258100872960592 -0.1356062114147943 1.4978230462460491
-0.17347962572588202 -0.13378812193861467 1.4978253148608915
-0.16440596085343756 -0.13197450534039645 1.4978293535068352
-0.15535991346524278 -0.13016534661689871 1.497835153689077
-0.14634679120587635 -0.12836595384966487 1.4978356205545666
-0.1373596453385528 -0.12656962871928976 1.4978396235106923
-0.12839974196033996 -0.12477769157863754 1.497845379707052
-0.11947092477373816 -0.1229940821803485 1.4978475913087723
-0.11056907891772824 -0.1212148065733916 1.4978515562715005
-0.10169539667012413 -0.11944116022830147 1.4978555086899026
-0.09284974458622787 -0.11767311647253755 1.497859448623416
-0.08403451879514275 -0.11591325189733521 1.4978598720822602
-0.0752445056113096 -0.11415632578389896 1.4978637927488059
-0.06648212742211346 -0.11240492328489975 1.4978677010891368
-0.057748482010535424 -0.11066030771717364 1.4978698533937254
-0.04904097225480099 -0.10891987054925288 1.49787373999241
-0.04036070964837553 -0.10718487947932019 1.4978776144293278
-0.03170875856152791 -0.10545658625603178 1.4978797411753009
-0.023082596166606 -0.10373240699231166 1.4978835941707405
-0.014483300299266744 -0.1020135977538288 1.4978874351658682
-0.005911902474313407 -0.1003013988780281 1.4978895367354934
0.0026351923550716402 -0.09859198931319316 1.4978950813787553
0.011154637453794806 -0.0968891404790156 1.4978988867074254
0.019645468243450752 -0.09519406973319758 1.4978992413585013
0.02811342942201855 -0.09350048044520279 1.497904745297627
0.0365541421658536 -0.09181336688344083 1.497908518107385
0.044967761254312295 -0.09013269335377834 1.49791056780099
0.05335551728857129 -0.08845718613247033 1.4979126111939363
0.06171859514330239 -0.08678558694201224 1.4979163545499166
0.07005602517499195 -0.08511911419913283 1.4979200864258015
0.07836688150065346 -0.0834589713012073 1.4979221058727379
0.0866533795434931 -0.0818026772095021 1.49792581755083
0.09491458095823652 -0.08015143937382177 1.497929517898087
0.10314959042487375 -0.07850645042895234 1.497931513750655
0.1113605556395653 -0.07686525219487188 1.4979351941721073
0.11954656903860339 -0.07522904130085609 1.4979388634093485
0.12770676536278444 -0.07359899976181374 1.4979408360125843
0.13584322573446533 -0.07197269194106237 1.4979444855911108
0.14395507286477036 -0.07035130379116358 1.497948124129455
0.1520414710627217 -0.06873600684737267 1.4979500738219407
0.1601044360069232 -0.06712438770675018 1.49795369296388
0.16814312018628283 -0.06551762178645532 1.4979573012071565
0.17615671699486474 -0.06391687027986939 1.4979592283211702
0.18414717777490822 -0.06231974171386332 1.4979628174256614
0.1921136843055695 -0.06072740110902978 1.4979663957705418
0.20005634414270743 -0.0591398269671671 1.4979699634041121
0.20797438872513685 -0.05755816690186859 1.4979718600913392
0.215869685296351 -0.05598005821827859 1.4979754089275004
0.2237414539473027 -0.05440665228586786 1.4979789471881524
0.23158895410964997 -0.05283908668866483 1.4979808220558863
0.23941399118947818 -0.051275019973718056 1.497984341766173
0.2472158134660677 -0.04971559342861106 1.4979878510344153
0.2549937079104912 -0.04816193473782241 1.4979897043948351
0.2627494191271931 -0.046611723404327614 1.4979931953554069
0.27048222312634596 -0.04506609076481342 1.4979966760051073
0.27819143397349844 -0.04352615473201735 1.4979985081646776
0.28587873648682594 -0.041989615483984194 1.4980019707451626
0.29354343395856014 -0.04045759453525528 1.4980054231436941
0.30118486711210823 -0.03893120015245103 1.498007234403304
0.30880541143798007 -0.037407028051225796 1.4980122975739985
0.31640214868058847 -0.035889564635374495 1.4980140934753132
0.3239774250521909 -0.03437541576720395 1.4980175079725668
0.3315298666920845 -0.03286680190442486 1.4980192910341243
0.3390610227536774 -0.03136147040425872 1.4980226880071954
0.34657025848917 -0.029860520350593157 1.4980260750929695
0.35405836375127453 -0.02836282730832489 1.4980310667231067
0.36152266541079164 -0.026872790419147186 1.4980312077290165
0.3689667203052736 -0.025384867348332295 1.4980345677499665
0.37638856638773305 -0.023902345758328964 1.498036310670611
0.3837896406582357 -0.022423012295261488 1.4980396536133087
0.39116935964647087 -0.02094794734545497 1.498042986910179
0.3985271747428361 -0.019478218775571935 1.498044710179938
0.40586446825131967 -0.01801163249083222 1.4980480266158218
0.4131806817274132 -0.016549259706120135 1.4980513335235868
0.4204752910236885 -0.015092159277102044 1.4980530374155305
0.42774962464491034 -0.013638156117153716 1.4980563276758698
0.43500314877374274 -0.012188312385306594 1.498059608523849
0.4422353633368805 -0.010743678039102741 1.4980612933062087
0.4494475439195509 -0.009302096753489026 1.4980645577167053
0.45663918094026607 -0.00786462174531963 1.4980678128286806
0.4638103620502685 -0.006431235494735488 1.4980710586818107
0.47096061868393446 -0.005002976266746204 1.4980727176458482
0.4780911572056844 -0.0035777123769962257 1.4980759473401872
0.4852014997524303 -0.0021564852922936113 1.498079167886991
0.4922912009544114 -0.0007403246357031582 1.4980808083554216
0.49936141624459146 0.000672883074553771 1.4980840129451773
0.49935328231363896 -0.012188312954451242 1.4766095649069948
0.49934439971812894 -0.025385967442842255 1.454573507951854
0.49933582609526855 -0.038931201904998526 1.4319569175026396
0.4993270229269242 -0.05283908905667541 1.4087348028465836
0.49931798086942625 -0.06712439070692552 1.3848825160685407
0.4993086900650208 -0.08180268085923303 1.3603740531255806
0.4992997141449934 -0.09688914479641743 1.3351838679439163
0.49928990216552505 -0.11240363491060348 1.3092791922788647
0.49927862757164976 -0.1283659595599014 1.2826271566227625
0.49926882213482426 -0.14478894357611066 1.2552053672845096
0.4992581190477358 -0.1616984608744623 1.2269714058496426
0.49924709503265285 -0.17911500361459995 1.19789085982474
0.4992351088927453 -0.19706322107025817 1.1679227806443342
0.4992240246963356 -0.21556320288752184 1.1370329988648515
0.49921194627800886 -0.23464556874238776 1.1051710141537463
0.4991988260204303 -0.2543382586058169 1.0722901848869821
0.49918528044072513 -0.274669330499569 1.0383434509270801
0.4991726449948698 -0.29566682842247366 1.003283535907451
0.49915889667598273 -0.3173695060245049 0.9670463986959964
0.4991446799367873 -0.3398116176599013 0.9295746224682279
0.4991299704230078 -0.363031608252021 0.8908040154231126
0.49911328972194957 -0.3870746567266872 0.8506596252050631
0.4990989669098956 -0.41197281008755127 0.8090864928791794
0.4990811094394244 -0.43778979368734877 0.7659801664319421
0.4990656540439167 -0.46455948604758984 0.721282092555793
0.4257166329793268 -0.7108058467068257 0.3345202162484953
0.4365931254800885 -0.7108058468030223 0.3308947188997602
0.44746961798085017 -0.7108058468992188 0.3272692215510195
0.4583461104816119 -0.7108058469954154 0.3236437242022843
0.46922260298237356 -0.7108058470916148 0.32001822685354914
0.4800990954831353 -0.7108058471878113 0.31639272950481395
0.49097558798389696 -0.7108058472840079 0.3127672321560788
0.5018520804846587 -0.7108058473802045 0.30914173480733814
0.5127285729854204 -0.710805847476401 0.30551623745860296
0.5236050654861794 -0.7108058475726003 0.3018907401098678
0.534481557986941 -0.7108058476687968 0.29826524276113264
0.5453580504877027 -0.7108058477649934 0.29463974541239746
0.5562345429884644 -0.71080584786119 0.2910142480636568
0.567111035489226 -0.7108058479573893 0.2873887507149216
0.5779875279899878 -0.7108058480535859 0.2837632533661864
0.5888640204907495 -0.7108058481497824 0.2801377560174513
0.5997405129915112 -0.710805848245979 0.2765122586687161
0.6106170054922728 -0.7108058483421756 0.2728867613199754
0.6214934979930345 -0.7108058484383749 0.26926126397124023
0.6323699904937963 -0.7108058485345715 0.26563576662250504
0.643246482994558 -0.7108058486307681 0.2620102692737699
0.6541229754953196 -0.7108058487269646 0.25838477192503473
0.6649994679960813 -0.7108058488231612 0.25475927457629954
0.6758759604968403 -0.7108058489193605 0.25113377722755886
0.686752452997602 -0.7108058490155571 0.2475082798788237
0.6976289454983636 -0.7108058491117537 0.24388278253008855
0.7085054379991254 -0.7108058492079502 0.24025728518135336
0.7193819304998871 -0.7108058493041496 0.2366317878326182
0.7302584230006488 -0.7108058494003462 0.23300629048387753
0.7411349155014104 -0.7108058494965427 0.22938079313514234
0.7520114080021721 -0.7108058495927393 0.22575529578640718
0.7628879005029339 -0.7108058496889358 0.222129798437672
0.7737643930036956 -0.7108058497851352 0.21850430108893684
0.7846408855044572 -0.7108058498813318 0.21487880374019616
0.7955173780052189 -0.7108058499775283 0.21125330639146098
0.8063938705059807 -0.7108058500737249 0.20762780904272582
0.8172703630067423 -0.7108058501699241 0.20400231169399063
0.8281468555075012 -0.7108058502661208 0.20037681434525548
0.839023348008263 -0.7108058503623174 0.1967513169965148
0.8498998405090247 -0.7108058504585139 0.19312581964777964
0.8607763330097864 -0.7108058505547105 0.18950032229904445
0.871652825510548 -0.7108058506509098 0.1858748249503093
0.8825293180113097 -0.7108058507471063 0.1822493276015741
0.8934058105120715 -0.7108058508433029 0.17862383025283343
0.9042823030128331 -0.7108058509394996 0.17499833290409827
0.9151587955135948 -0.7108058510356988 0.1713728355553631
0.9260352880143565 -0.7108058511318954 0.16774733820662793
0.9369117805151183 -0.7108058512280919 0.16412184085789275
0.9477882730158799 -0.7108058513242885 0.16049634350915207
0.9586647655166416 -0.7108058514204851 0.1568708461604169
0.9695412580174033 -0.7108058515166844 0.15324534881168173
0.9804177505181623 -0.710805851612881 0.14961985146294657
0.991294243018924 -0.7108058517090775 0.14599435411421138
1.0021707355196856 -0.7108058518052741 0.14236885676547073
1.0130472280204472 -0.7108058519014707 0.13874335941673555
1.023923720521209 -0.71080585199767 0.1351178620680004
1.0348002130219707 -0.7108058520938666 0.1314923647192652
1.0456767055227325 -0.7108058521900632 0.12786686737053005
1.0565531980234941 -0.7108058522862597 0.12424137002178937
1.0674296905242557 -0.7108058523824591 0.1206158726730542
1.0783061830250176 -0.7108058524786556 0.11699037532431902
1.0891826755257792 -0.7108058525748522 0.11336487797558385
1.1000591680265408 -0.7108058526710488 0.10973938062684868
1.1109356605273026 -0.7108058527672453 0.106113883278108
1.1218121530280643 -0.7108058528634447 0.10248838592937283
1.1326886455288232 -0.7108058529596412 0.09886288858063766
1.1435651380295848 -0.7108058530558378 0.09523739123190249
