ply
format ascii 1.0
element vertex 806
property float x
property float y
property float z
end_header
0.49856979047204975 0.1329528490386585 1.0269456077316426
0.498560974362587 0.1282735456152538 1.010901279290283
0.498549772155688 0.12354212434220078 0.9946797751832687
0.4985407506218383 0.11876041348109465 0.9782843219102666
0.4985385768283601 0.11393034055468623 0.9617184195762678
0.49852939406090874 0.10904288374540946 0.9449603607809961
0.4985224507030777 0.10410260758829103 0.9280196364804594
0.4985083668755778 0.09910300135339686 0.910880167852753
0.4985059628437866 0.09405442332737984 0.8935649374086371
0.49849162711454403 0.08894171924549384 0.8760377063845831
0.49848431205137267 0.08377536385757951 0.8583217686995207
0.49847932166790493 0.07855155821337653 0.8404072244533882
0.4984718521205126 0.07326634971032416 0.8222837186172447
0.4984618604669973 0.0679186499526193 0.80394754657622
0.4984493027436554 0.06250734466807814 0.7853949156394029
0.49844399158013813 0.057037483439904856 0.7666366043342336
0.49843118143814374 0.05149872157328555 0.7476469602856504
0.498420713474414 0.04589609264026734 0.7284366880840684
0.49841513786547337 0.04023008952100359 0.7090057782111938
0.4984019255104055 0.03449152108193544 0.6893310574301358
0.4983961699395677 0.028688843053789635 0.6694314668956733
0.4983877908415616 0.02281433346770336 0.649287240140652
0.49837417078269314 0.016864968631778034 0.628889750731664
0.49836296912573463 0.010844420391374184 0.608246487009276
0.4983542306321875 0.0047514042335836905 0.5873530131996046
0.4983427664759416 -0.0014188863228369582 0.5661963020892193
0.49833379297199565 -0.007664395377758761 0.544779927957741
0.4983220566028071 -0.013990085101073212 0.5230903727007786
0.49831283894749917 -0.020393884312643402 0.5011312194995985
0.49758654496998683 -0.027369349062782287 0.47768928057600824
0.507125860773526 -0.02736934902211805 0.471329736457044
0.5166651765770649 -0.027369348981453812 0.4649701923380798
0.526204492380604 -0.027369348940789576 0.4586106482191156
0.535743808184143 -0.027369348900128092 0.4522511041001514
0.5452831239876821 -0.027369348859463856 0.44589155998118724
0.5548224397912156 -0.027369348818799617 0.439532015862223
0.5643617555947547 -0.02736934877813538 0.4331724717432588
0.5739010713982937 -0.027369348737473896 0.4268129276242946
0.5834403872018328 -0.02736934869680966 0.4204533835053304
0.5929797030053718 -0.02736934865614542 0.41409383938636624
0.6025190188089053 -0.027369348615481185 0.407734295267402
0.6120583346124444 -0.027369348574816946 0.4013747511484378
0.6215976504159835 -0.02736934853415546 0.3950152070294736
0.6311369662195225 -0.027369348493491225 0.3886556629105094
0.6406762820230616 -0.02736934845282699 0.3822961187915397
0.6502155978265951 -0.02736934841216275 0.3759365746725755
0.6597549136301342 -0.027369348371498514 0.3695770305536113
0.6692942294336732 -0.02736934833083703 0.36321748643464713
0.6788335452372123 -0.02736934829017279 0.3568579423156829
0.6883728610407512 -0.027369348249508554 0.3504983981967187
0.6979121768442849 -0.02736934820884432 0.3441388540777545
0.7074514926478239 -0.027369348168182834 0.3377793099587903
0.7169908084513629 -0.027369348127518595 0.33141976583982613
0.7265301242549019 -0.02736934808685436 0.3250602217208619
0.736069440058441 -0.027369348046190123 0.3187006776018977
0.74560875586198 -0.027369348005525884 0.3123411334829335
0.7551480716655136 -0.0273693479648644 0.3059815893639693
0.7646873874690526 -0.027369347924200163 0.29962204524500513
0.7742267032725917 -0.027369347883535924 0.2932625011260409
0.7837660190761307 -0.027369347842871688 0.2869029570070767
0.7933053348796698 -0.027369347802210203 0.2805434128881125
0.8028446506832033 -0.027369347761545967 0.2741838687691483
0.8123839664867424 -0.027369347720881728 0.26782432465018413
0.8219232822902814 -0.027369347680217492 0.2614647805312199
0.8314625980938205 -0.027369347639553253 0.2551052364122557
0.8410019138973596 -0.02736934759889177 0.2487456922932915
0.8505412297008931 -0.027369347558227532 0.2423861481743273
0.8600805455044321 -0.027369347517563297 0.2360266040553631
0.8696198613079712 -0.027369347476899057 0.2296670599363989
0.8791591771115101 -0.02736934743623482 0.22330751581743472
0.8886984929150492 -0.027369347395573337 0.2169479716984705
0.8982378087185828 -0.0273693473549091 0.2105884275795063
0.9077771245221219 -0.02736934731424486 0.2042288834605421
0.9173164403256608 -0.027369347273580626 0.1978693393415779
0.9268557561291999 -0.02736934723291914 0.19150979522261372
0.936395071932739 -0.027369347192254905 0.1851502511036495
0.9459343877362725 -0.027369347151590666 0.1787907069846853
0.9554737035398115 -0.02736934711092643 0.1724311628657211
0.9650130193433506 -0.02736934707026219 0.1660716187467569
0.9745523351468897 -0.027369347029600706 0.15971207462779272
0.9840916509504287 -0.02736934698893647 0.1533525305088285
0.9936309667539678 -0.027369346948272234 0.1469929863898643
1.0031702825575013 -0.027369346907607995 0.1406334422709001
1.0127095983610404 -0.02736934686694651 0.1342738981519359
1.0222489141645794 -0.027369346826282274 0.12791435403297172
1.0317882299681185 -0.027369346785618035 0.12155480991400751
1.0413275457716575 -0.0273693467449538 0.1151952657950433
1.050866861575191 -0.027369346704289563 0.1088357216760791
1.06040617737873 -0.02736934666362808 0.10247617755711491
1.0699454931822692 -0.02736934662296384 0.0961166334381507
1.0794848089858082 -0.027369346582299604 0.08975708931918651
1.0890241247893473 -0.027369346541635364 0.0833975452002223
1.0985634405928808 -0.02736934650097113 0.0770380010812581
1.1081027563964199 -0.027369346460309644 0.07067845696229391
1.117642072199959 -0.027369346419645408 0.0643189128433297
1.127181388003498 -0.02736934637898117 0.05795936872436551
1.136720703807037 -0.027369346338316933 0.05159982460540131
1.1462600196105706 -0.027369346297655448 0.04524028048643711
1.1557993354141096 -0.027369346256991212 0.038880736367472905
1.1653386512176487 -0.027369346216326973 0.0325211922485032
1.1748779670211875 -0.027369346175662737 0.026161648129539
1.1844172828247266 -0.027369346134998498 0.0198021040105748
1.1939565986282603 -0.027369346094337017 0.0134425598916106
1.2034959144317994 -0.027369346053672777 0.007083015772646399
1.2130352302353382 -0.02736934601300854 0.0007234716536821994
1.2233758322894763 -0.02631044446237514 -0.002538187001139519
1.2345242764686106 -0.0241444065241566 -0.0025408831336128953
1.2456284456697404 -0.021983856467318163 -0.0025328862742253593
1.2566845430664224 -0.019834213301762833 -0.0025302526351064177
1.267695524378673 -0.017691791648412752 -0.0025223116925104233
1.278659064902993 -0.015560147614542308 -0.0025197112401997967
1.289579279455845 -0.013433839572720915 -0.0025065294803674545
1.3004501675681772 -0.011321757133028973 -0.002509257833279142
1.3112782577489495 -0.009214914437903636 -0.0025014267724182537
1.3220625146917033 -0.007115066320714996 -0.0024883652450587777
1.3327996535575706 -0.005027454341865761 -0.002485862129206335
1.3434912252360196 -0.0029502299121874033 -0.0024886106133100434
1.3541420679978124 -0.0008763436384084806 -0.002475656498574254
1.3647478499877836 0.0011872472604892272 -0.002467975432572473
1.3753089045483764 0.003240617074236183 -0.0024655348267173223
1.3858276884596668 0.005287283678632976 -0.002457906073840678
1.3963012779336117 0.0073221323794416095 -0.002460683596284679
1.4067331269127403 0.009350380948031351 -0.002458272849180526
1.4171244398368852 0.011373760425617626 -0.0024455392489427766
1.4274724080980237 0.013387197127617982 -0.0024380133397481243
1.4377773491859926 0.01539076203041076 -0.002435663329567087
1.448041465541353 0.017387886445850972 -0.0024281879694803402
1.458263103281151 0.01937525185141797 -0.0024258673413905963
-0.34556399337904403 0.09559679274637464 1.4977798801327389
-0.3286571713635775 0.09892403343665152 1.497788020367907
-0.3118742915697218 0.10222688245813095 1.497796100927825
-0.29521399606287807 0.10550560705058634 1.4978041224663063
-0.278667952528445 0.10876320612698348 1.4978166964302735
-0.26225582463785346 0.1119917325295251 1.4978199910468037
-0.24595533024940006 0.11519964872756999 1.497827839349556
-0.22977218251391482 0.11838447125619161 1.4978356311526642
-0.213705118814871 0.1215464485966873 1.4978433670640525
-0.1977495819672394 0.12468714501739417 1.4978533118343895
-0.18191100595108395 0.12780415390092884 1.4978609296773449
-0.1661815908573559 0.13090034275479334 1.4978707415119876
-0.1505698699507118 0.13397204419824052 1.4978760037504084
-0.13506494214083262 0.13702339159668248 1.4978834611193645
-0.11966889028559673 0.14005331236450785 1.497890866122511
-0.10438367690240224 0.14306076687116714 1.497896002754269
-0.08919578711030714 0.14605102618549504 1.4979077300321306
-0.07411960266694423 0.14901799524637194 1.4979149735202166
-0.0591508241798945 0.15196318036485276 1.497919973355578
-0.0442823249994096 0.1548892795282578 1.4979271246229453
-0.02951607869134061 0.15779525547406115 1.4979342267099824
-0.014851034058062934 0.16068131507643754 1.4979412801222864
-0.0002861542616994362 0.16354766238357873 1.4979482853585424
0.01417673285947525 0.1663933020604846 1.4979530867891246
0.028547187834415316 0.16922202246266108 1.497962153263827
0.0428176541858156 0.17203042962907084 1.497969016896735
0.05699196426793872 0.1748199133805732 1.4979758342815868
0.07107108668777244 0.17759066433761694 1.4979826058842505
0.08505597708646881 0.18034287056900616 1.497989332164359
0.09894757835556377 0.18307671763443198 1.4979960135754125
0.1127441748170071 0.18579124706265462 1.4980005446825542
0.12645462259034998 0.1884900642100463 1.4980092435743075
0.1400718894773576 0.19116992266531083 1.4980157930393934
0.15359951548055534 0.19383213992411566 1.4980222993901122
0.16703838283936437 0.19647688960990337 1.4980287630507931
0.18038936225381375 0.199104343075182 1.4980351844402184
0.19365331307258535 0.20171466943853097 1.498041563971699
0.2068310834773895 0.2043080356208875 1.4980479020531872
0.2199235106638002 0.20688460638112802 1.4980541990873464
0.23293142101850464 0.20944454435096058 1.4980604554716423
0.2458556302932145 0.21198801006914386 1.4980666715984294
0.25869694377518926 0.21451516201504742 1.498072847855016
0.27145615645449317 0.2170261566415684 1.4980789846237712
0.2841340531880703 0.21952114840741907 1.4980850822821858
0.2967314088606728 0.22200028980879857 1.498091141202954
0.3092489885427311 0.22446373141046339 1.4980971617540544
0.321687547645255 0.22691162187620922 1.4981031442988069
0.3340478320717902 0.2293441079987773 1.4981090891959712
0.34633057836753517 0.23176133472919805 1.4981149967998013
0.35853434916904875 0.23416243525082242 1.4981188868416957
0.37066635683077204 0.23655058078138325 1.4981267015223976
0.3827208166000167 0.23892288105311554 1.4981324993277898
0.3946984963899883 0.24127949261692624 1.4981362990237617
0.40660638008837097 0.2436235254485146 1.4981439875115359
0.41843885907546907 0.24595214022293713 1.4981496785513493
0.43019870566662183 0.2482664610467414 1.4981553346573286
0.44188457581746904 0.25056565197567787 1.4981590180056519
0.4535031604173586 0.25285274408190284 1.4981665433465647
0.4650490777405944 0.2551249639347726 1.4981720965594831
0.47652498124035503 0.2573834051683041 1.4981776160980163
0.48793150583169376 0.2596281927328683 1.4981831022675376
0.498790336383734 0.261623880283218 1.4977092680475033
0.49878583418180217 0.25827025719576047 1.4863434775131628
0.4987832170691117 0.25488698757688427 1.4748759284250021
0.49877670596218754 0.251470782517146 1.4632993240930319
0.4987701348758291 0.24802310784167544 1.4516160776586515
0.498763502977426 0.2445435266976352 1.4398247087445595
0.4987587714383852 0.24103258602740582 1.4279257640393317
0.49875202452813655 0.2374878579919457 1.4159136236487595
0.4987471947450702 0.23391087417762174 1.4037908579893434
0.4987423194349116 0.23030017256066418 1.3915538192324992
0.49873539873582673 0.22665424427629602 1.3791987255635683
0.4987284121605062 0.22297361140314373 1.3667260271553976
0.49872337711876163 0.21925882570499636 1.354136249548891
0.4987182937029795 0.2155083502992445 1.3414255159793367
0.49871112335900025 0.21172059835862916 1.3285898061339354
0.4987059311887264 0.20789717266206634 1.3156318433697611
0.49869863066682046 0.20403538535841814 1.3025452402140312
0.49869332644083475 0.2001368600525963 1.2893327642602606
0.4986858919851117 0.19619884533447682 1.275987839237392
0.49868047226930434 0.1922229858308433 1.2625132771217376
0.4986728999760815 0.1882064642479426 1.2489023054910173
0.49866736119673477 0.1841509464168231 1.2351577807896355
0.49865964700716525 0.18005354672030283 1.2212727267165184
0.49865398544382483 0.17591595236063193 1.207250044201056
0.4986461251360563 0.17173520683499283 1.193082544937397
0.4986381846677429 0.1675118254698212 1.1787705634943135
0.4986323260948599 0.16324635837328105 1.16431452336935
0.4986242327386557 0.1589357376178018 1.149706902065126
0.498618241273218 0.15458170444357458 1.1349507112747161
0.4986077932594918 0.150179869438903 1.1200354431726949
0.49860165309912413 0.14573446980972155 1.104969618964704
0.49859766858709087 0.14124358784998983 1.089748172425135
0.49858917802623726 0.13670267241926937 1.0743601163063845
0.4985805971956047 0.1321134789775702 1.058808457770109
0.4985719246479256 0.1274752334884586 1.0430905737954086
0.4985676948717254 0.12278979541377881 1.027209744970799
0.4985565787079672 0.11804974601851911 1.0111483745361884
0.49854763440869854 0.11325954614024872 0.9949155459088421
0.498540897596921 0.10841839622297336 0.9785085248429193
0.4985317689798179 0.10352271181284313 0.9619182262248889
0.49852953149973717 0.09857716372020243 0.9451542954867665
0.49851555126265407 0.09356967326714716 0.9281882084721536
0.4985084849579441 0.08851052981546619 0.911042408353704
0.4984989693917537 0.08339314850649446 0.8937008145710605
0.4984941130382325 0.07822090794700617 0.8761701416279291
0.4984820109627382 0.07298552480012388 0.858430245611843
0.4984745917960391 0.06769332515290893 0.8404946195552866
0.49846951185663646 0.06234186764728363 0.822356549701736
0.49845705795297607 0.05692402600370703 0.8039983534042676
0.49845181717932824 0.05144785940398869 0.7854376265825286
0.4984391143008103 0.0459030218119972 0.7666490796345071
0.49842874353469413 0.040294563473848515 0.7476433034306134
0.4984207463023044 0.0346213837837642 0.7284165392998416
0.4984101429218133 0.028879108690248536 0.7089572789830226
0.4983994126442382 0.023068112308698104 0.689265137898329
0.4983961770672315 0.017192143446020682 0.6693477434466354
0.4983801188901438 0.011236644841013044 0.6491692913381365
0.4983767264285741 0.005217049792895825 0.6287651082905554
0.498365528237554 -0.0008814638771534343 0.6080985947054709
0.498351587840487 -0.007056958981968558 0.5871729419704969
0.4983400945990654 -0.013307365386035944 0.565991708276394
0.49833373104000417 -0.01963226344583178 0.5445545278646696
0.4983246343532023 -0.026038428215151142 0.522843675157009
0.498310082650682 -0.03252927113654298 0.5008493999453514
0.49928620471121554 -0.038417136822546306 0.48023877009653915
0.5088255205147546 -0.03841713678188207 0.4738792259775749
0.5183648363182937 -0.038417136741217835 0.46751968185861076
0.5279041521218327 -0.0384171367005536 0.46116013773964654
0.5374434679253718 -0.03841713665989211 0.45480059362068237
0.5469827837289108 -0.038417136619227875 0.44844104950171815
0.5565220995324444 -0.03841713657856364 0.4420815053827539
0.5660614153359834 -0.0384171365378994 0.43572196126378976
0.5756007311395225 -0.038417136497237915 0.42936241714482554
0.5851400469430614 -0.03841713645657368 0.42300287302586137
0.5946793627466005 -0.03841713641590944 0.41664332890689715
0.6042186785501341 -0.03841713637524521 0.4102837847879329
0.6137579943536732 -0.038417136334580965 0.40392424066896876
0.6232973101572121 -0.038417136293919484 0.39756469655000454
0.6328366259607512 -0.03841713625325525 0.39120515243104037
0.6423759417642902 -0.03841713621259101 0.38484560831207065
0.6519152575678238 -0.03841713617192677 0.37848606419310643
0.6614545733713628 -0.03841713613126253 0.37212652007414226
0.6709938891749019 -0.03841713609060105 0.36576697595517804
0.6805332049784409 -0.03841713604993681 0.3594074318362138
0.69007252078198 -0.03841713600927257 0.35304788771724965
0.6996118365855135 -0.03841713596860834 0.34668834359828543
0.7091511523890526 -0.038417135927946856 0.34032879947932126
0.7186904681925916 -0.038417135887282614 0.33396925536035704
0.7282297839961307 -0.03841713584661838 0.3276097112413928
0.7377690997996698 -0.03841713580595414 0.32125016712242865
0.7473084156032088 -0.038417135765289906 0.31489062300346443
0.7568477314067423 -0.03841713572462842 0.30853107888450026
0.7663870472102814 -0.03841713568396418 0.30217153476553604
0.7759263630138205 -0.038417135643299946 0.2958119906465718
0.7854656788173594 -0.03841713560263571 0.28945244652760765
0.7950049946208985 -0.03841713556197422 0.28309290240864343
0.8045443104244321 -0.038417135521309986 0.27673335828967927
0.814083626227971 -0.03841713548064575 0.27037381417071504
0.8236229420315101 -0.038417135439981515 0.2640142700517508
0.8331622578350492 -0.03841713539931727 0.25765472593278665
0.8427015736385882 -0.03841713535865579 0.25129518181382243
0.8522408894421217 -0.038417135317991555 0.24493563769485824
0.8617802052456608 -0.03841713527732732 0.23857609357589404
0.8713195210491999 -0.038417135236663076 0.23221654945692985
0.8808588368527389 -0.03841713519599884 0.22585700533796566
0.890398152656278 -0.03841713515533736 0.21949746121900143
0.8999374684598115 -0.03841713511467312 0.21313791710003724
0.9094767842633505 -0.03841713507400888 0.20677837298107304
0.9190161000668896 -0.038417135033344645 0.20041882886210885
0.9285554158704287 -0.03841713499268316 0.19405928474314466
0.9380947316739677 -0.03841713495201892 0.18769974062418043
0.9476340474775012 -0.038417134911354685 0.18134019650521624
0.9571733632810403 -0.03841713487069045 0.17498065238625204
0.9667126790845794 -0.03841713483002621 0.16862110826728785
0.9762519948881184 -0.038417134789364725 0.16226156414832366
0.9857913106916574 -0.03841713474870049 0.15590202002935943
0.9953306264951964 -0.03841713470803625 0.14954247591039524
1.00486994229873 -0.03841713466737202 0.14318293179143105
1.014409258102269 -0.03841713462671053 0.13682338767246685
1.023948573905808 -0.03841713458604629 0.13046384355350266
1.0334878897093471 -0.03841713454538206 0.12410429943453845
1.0430272055128862 -0.03841713450471782 0.11774475531557424
1.0525665213164197 -0.038417134464053586 0.11138521119661005
1.0621058371199588 -0.0384171344233921 0.10502566707764585
1.0716451529234978 -0.03841713438272786 0.09866612295868164
1.0811844687270369 -0.038417134342063626 0.09230657883971745
1.090723784530576 -0.03841713430139938 0.08594703472075324
1.1002631003341095 -0.03841713426073515 0.07958749060178905
1.1098024161376485 -0.038417134220073666 0.07322794648282485
1.1193417319411876 -0.03841713417940943 0.06686840236386064
1.1288810477447266 -0.03841713413874519 0.06050885824489645
1.1384203635482657 -0.03841713409808095 0.05414931412593225
1.1479596793517992 -0.03841713405741947 0.047789770006968046
1.1574989951553383 -0.038417134016755235 0.041430225888003845
1.1670383109588773 -0.03841713397609099 0.03507068176903414
1.1765776267624164 -0.038417133935426756 0.02871113765006994
1.1861169425659555 -0.03841713389476252 0.02235159353110574
1.195656258369489 -0.03841713385410104 0.01599204941214154
1.205195574173028 -0.038417133813436796 0.00963250529317734
1.214734889976567 -0.03841713377277256 0.0032729611742131396
1.224412891440257 -0.038231483626705545 -0.002549685660873794
1.2355727235352927 -0.03603287656282241 -0.002536289848495376
1.2466840492573323 -0.033845402081467586 -0.0025282959392297875
1.2577472344262588 -0.0316689781569932 -0.002525669745860629
1.268765233924053 -0.02949987339917838 -0.002517731766110261
1.2797357253079518 -0.027341688108657645 -0.0025151387343269375
1.2906590648342837 -0.02519434232613667 -0.0025178570924950065
1.3015392966992794 -0.023052349973207747 -0.0025099851498894916
1.3123753669306866 -0.02091749493176706 -0.0024968676230943303
1.3231627447749168 -0.018796893113254373 -0.0024996069699726093
1.3339088998536426 -0.01667974291075924 -0.0024865654598224514
1.3446093396135175 -0.014573146247839947 -0.0024788235983723675
1.3552621554451196 -0.012480557097555718 -0.002486817957976042
1.3658744281089974 -0.010391308342115595 -0.0024791074856739316
1.376441911535108 -0.008312414868197261 -0.002476641954134352
1.3869691854332953 -0.006236827911236622 -0.0024585791710758846
1.3974479985254014 -0.004178450440765969 -0.0024665493911698007
1.4078891366925026 -0.0021198305542330697 -0.0024485812019062175
1.418284547329982 -7.480066110499479e-05 -0.00244619810813445
1.4286366345163355 0.0019601843924224047 -0.002448984747256081
1.4389476399942058 0.003988612832967178 -0.0024466105160792255
1.4492196462627975 0.006013916821945934 -0.0024288287103678787
1.4594453460576777 0.008022528704569954 -0.0024367622092922618
-0.3475605557088322 0.08461905660974675 1.4977754626318092
-0.3306213929021602 0.08799166031905835 1.4977836311722414
-0.31380659224137164 0.09133950340476017 1.4977917397417562
-0.2971147891922817 0.09466285754693005 1.4977997889983603
-0.2805446391106589 0.09796199046553586 1.4978077795904843
-0.2640878826000609 0.1012399186484127 1.4978203129223306
-0.24775715720483735 0.10449137691660261 1.4978281714249793
-0.23155095104947376 0.10771668117686839 1.4978314057239892
-0.2154543517196934 0.11092152968245815 1.49783916795663
-0.1994729681177153 0.11410343862513138 1.4978468746290083
-0.18360556762372343 0.11726265342068644 1.4978545263355283
-0.16784768615589202 0.12040073426382988 1.4978643749329497
-0.15220787277130168 0.12351396485394117 1.4978696671865186
-0.1366751995401046 0.12660653512750702 1.4978771574781438
-0.1212517510705491 0.12967735864532223 1.4978845950985222
-0.10593637930688718 0.13272666398638974 1.497891980601272
-0.09072179484128767 0.13575722181926805 1.4979037383567246
-0.07562535356215823 0.13876161854857436 1.4979065974298744
-0.060627482526517826 0.1417477091873987 1.4979138298248487
-0.045727291126817296 0.14471565738075653 1.4979253901461056
-0.03093864653522121 0.14765943575281806 1.497930326601991
-0.01624853588297819 0.15058424876895726 1.49793740310562
-0.0016588988998091118 0.15348905739561086 1.4979444312091859
0.012831291692469873 0.15637406616470165 1.4979514114075478
0.027223049215252742 0.15923947682934764 1.497958344188842
0.04151737326940051 0.1620854884108941 1.497965230034595
0.055712483498739966 0.1649111090222109 1.4979699322265594
0.06981765215639897 0.16772009702675472 1.4979788628132074
0.08382553964792884 0.17050907885498787 1.4979856106770604
0.09774253897341603 0.17328059580361213 1.4979944292128164
0.11156419709626815 0.17603249711209734 1.4980010803280817
0.12529414418014984 0.17876613869183727 1.4980076873111057
0.13893329000401555 0.18148170168042274 1.4980142505996914
0.1524825323530644 0.18417936482748637 1.4980207706258575
0.16594275721572663 0.18685930453391367 1.4980272478159542
0.1793123247184123 0.18952057566769753 1.4980316084640803
0.192599640606798 0.1921667077146299 1.4980400753654761
0.20579801384757115 0.19479451258929484 1.4980464265500415
0.21891079939439553 0.19740527689727105 1.4980527365489826
0.23193882707441932 0.19999916585769847 1.4980590057616245
0.2448805313486137 0.2025752591031586 1.4980631939070503
0.25774387484915273 0.20513696800166653 1.4980714233996277
0.27052250181638543 0.20768120111459837 1.4980775725982358
0.2832195849954209 0.21020919880516303 1.498083682557186
0.29583590243242575 0.2127211159828701 1.498089753650886
0.3083699603307646 0.21521605621287324 1.498093777963583
0.32082706486378465 0.2176962758888225 1.4980997787860126
0.33320567895878006 0.22016086805452686 1.4981057417981123
0.34550873359646694 0.2226110096455182 1.4981136566965758
0.35773255307080415 0.22504478021827795 1.4981195389164645
0.3698800732309987 0.22746335954693261 1.498125384420391
0.38195200622841186 0.22986688942129704 1.4981311935510413
0.39394695445858585 0.23225450556375904 1.4981350020172313
0.40587191530120487 0.23462935919816444 1.4981427040421098
0.4177212720474224 0.23698857399314982 1.4981484060669201
0.4294978032381942 0.23933328917169214 1.4981540730473744
0.44120217819006946 0.24166363799516746 1.4981597053055462
0.452835058042684 0.24397975209691425 1.4981653031595865
0.464395123816685 0.24628079355978014 1.4981689382303736
0.47588893686874995 0.24856979467669993 1.4981763969085433
0.48731121834601177 0.25084397850209733 1.4981818934206168
0.4986645699694509 0.25310443834783597 1.4981873567629758
0.49878615486283273 0.24977238896360082 1.486941245451922
0.4987816093486288 0.24634660845587616 1.4754651461709427
0.498775085539362 0.24288842131883365 1.463881777390059
0.49876850158427133 0.2393983516585496 1.4521916165213677
0.49876381119399144 0.23587695138104242 1.4403952104216506
0.4987590771709756 0.2323227929918681 1.4284890672974984
0.4987523260774691 0.22873440371356818 1.4164695677810066
0.4987474936736904 0.22511333322160126 1.404339280695396
0.49874062422355286 0.22145706793452588 1.3920924206716883
0.4987356905464308 0.21776717782083835 1.379731599825057
0.4987286994386801 0.21404109228973095 1.3672508667375027
0.498723661482944 0.21028040183457625 1.3546528771235804
0.49871451549279777 0.20648140398572717 1.3419292655129302
0.4987113999331981 0.2026489285922484 1.329089456821005
0.4987041550989315 0.19877706634099845 1.3161204232166401
0.49869889909153453 0.19486852230566076 1.3030271501453148
0.4986915219186961 0.1909205424783027 1.2898031494527578
0.49868199219241294 0.18693252746865438 1.2764464336231267
0.498678638531548 0.18290841594525983 1.2629646479620127
0.4986710503953026 0.17884197544259453 1.2493438490406836
0.49866549742992267 0.17473601781500311 1.2355892790762102
0.4986577669599831 0.17058762046659315 1.2216939534639815
0.4986520908028465 0.16639849048260974 1.2076607711056029
0.4986442137603794 0.16216563339030138 1.1934825348994789
0.49863841052050256 0.15789077803685422 1.1791621880869074
0.4986282172252068 0.15356963462280795 1.1646896656163563
0.49862444811772966 0.14920761603634497 1.150075895536001
0.4986162645161715 0.1447979135607711 1.135305288938028
0.4986101947766032 0.140343520646526 1.1203835240597595
0.49859964015102537 0.135839937828566 1.1052999232274139
0.49859564130784184 0.13129277709044052 1.0900659306692302
0.498587132007212 0.12669491049357773 1.0746650395317459
0.4985807781310557 0.12204942736222489 1.0591031576230119
0.4985720982952491 0.11735292988947818 1.0433718871371598
0.4985633250964103 0.11260591541660868 1.0274714061710286
0.4985544570200252 0.10780756447132404 1.0113989698406887
0.4985500822487502 0.10295978189184916 0.9951579021029675
0.49854335227081037 0.0980576439654343 0.9787362702210515
0.4985319081212852 0.0930988305790174 0.9621278725870226
0.49852267039152376 0.08808660627013773 0.9453390343085782
0.4985133299848744 0.08301867135029244 0.9283635889710128
0.4985109623117127 0.07789843803981548 0.9112082533259007
0.49850145116641453 0.07271630782507049 0.8938502754099837
0.4984942182377123 0.06747708385892934 0.8762994685357738
0.4984797052117248 0.06217382375525924 0.8585389423162244
0.49847226530921673 0.05681444661788603 0.840585663326171
0.49846716679650704 0.051394996383533446 0.822429530050028
0.4984546864933388 0.045908253995483275 0.8040528349419229
0.4984445161606464 0.040359240695322623 0.7854659420394294
0.49844163547360537 0.03475006600386966 0.7666726001562141
0.4984312687001777 0.029070114985318085 0.747647091178703
0.49841828039055996 0.023321296365190897 0.7283925678442641
0.4984126784761522 0.01750892959985266 0.7089201826703391
0.4983994231935896 0.011621974648018039 0.689202969117809
0.4983885521447908 0.005665731352246179 0.6692519942016828
0.49838010875077654 -0.00036103007616184 0.6490631081899271
0.4983689872844136 -0.006463020594046478 0.6286239293932262
0.4983603202271798 -0.012638162477856233 0.6079379982078815
0.4983489392312005 -0.018891316004283152 0.5869924743497298
0.4983400399511704 -0.02522038633571834 0.565790913445497
0.4983336689701938 -0.031626763660193485 0.544328626187838
0.49832190553952205 -0.03811738096369724 0.5225876619776342
0.4983073201327773 -0.04469204809937947 0.5005669443111115
0.5009858644524497 -0.04946492458231308 0.4827882596170701
0.5105251802559888 -0.049464924541648844 0.4764287154981059
0.5200644960595279 -0.04946492450098461 0.47006917137914167
0.5296038118630669 -0.04946492446032037 0.4637096272601775
0.539143127666606 -0.049464924419658884 0.4573500831412133
0.548682443470145 -0.04946492437899465 0.4509905390222491
0.5582217592736786 -0.04946492433833041 0.4446309949032849
0.5677610750772176 -0.04946492429766618 0.43827145078432067
0.5773003908807567 -0.04946492425700469 0.4319119066653565
0.5868397066842957 -0.04946492421634045 0.4255523625463923
0.5963790224878347 -0.04946492417567622 0.4191928184274281
0.6059183382913683 -0.04946492413501198 0.4128332743084639
0.6154576540949074 -0.04946492409434774 0.40647373018949967
0.6249969698984463 -0.04946492405368626 0.4001141860705355
0.6345362857019854 -0.04946492401302202 0.3937546419515713
0.6440756015055245 -0.049464923972357785 0.38739509783260156
0.6536149173090581 -0.04946492393169354 0.3810355537136374
0.663154233112597 -0.04946492389102931 0.3746760095946732
0.6726935489161361 -0.049464923850367826 0.368316465475709
0.6822328647196751 -0.04946492380970358 0.3619569213567448
0.6917721805232142 -0.04946492376903935 0.35559737723778057
0.7013114963267477 -0.04946492372837511 0.3492378331188164
0.7108508121302868 -0.04946492368771363 0.3428782889998522
0.7203901279338258 -0.04946492364704939 0.336518744880888
0.7299294437373649 -0.04946492360638515 0.3301592007619238
0.739468759540904 -0.049464923565720915 0.32379965664295957
0.749008075344443 -0.04946492352505668 0.3174401125239954
0.7585473911479765 -0.04946492348439519 0.3110805684050312
0.7680867069515156 -0.049464923443730956 0.304721024286067
0.7776260227550547 -0.04946492340306672 0.2983614801671028
0.7871653385585937 -0.049464923362402484 0.29200193604813857
0.7967046543621327 -0.049464923321740996 0.2856423919291744
0.8062439701656663 -0.04946492328107676 0.2792828478102102
0.8157832859692054 -0.049464923240412524 0.272923303691246
0.8253226017727443 -0.04946492319974829 0.2665637595722818
0.8348619175762834 -0.049464923159084045 0.26020421545331757
0.8444012333798224 -0.049464923118422564 0.2538446713343534
0.8539405491833559 -0.04946492307775833 0.24748512721538918
0.863479864986895 -0.04946492303709409 0.24112558309642498
0.8730191807904341 -0.04946492299642985 0.2347660389774608
0.8825584965939731 -0.049464922955765614 0.2284064948584966
0.8920978123975122 -0.04946492291510413 0.22204695073953237
0.9016371282010457 -0.0494649228744399 0.21568740662056818
0.9111764440045848 -0.049464922833775654 0.20932786250160398
0.9207157598081238 -0.04946492279311142 0.2029683183826398
0.9302550756116629 -0.04946492275244994 0.1966087742636756
0.9397943914152019 -0.0494649227117857 0.19024923014471137
0.9493337072187354 -0.04946492267112146 0.18388968602574718
0.9588730230222745 -0.04946492263045722 0.17753014190678298
0.9684123388258136 -0.04946492258979299 0.1711705977878188
0.9779516546293526 -0.0494649225491315 0.1648110536688546
0.9874909704328916 -0.04946492250846726 0.15845150954989037
0.9970302862364306 -0.04946492246780303 0.15209196543092618
1.0065696020399642 -0.04946492242713879 0.14573242131196198
1.0161089178435032 -0.0494649223864773 0.1393728771929978
1.0256482336470423 -0.04946492234581307 0.1330133330740336
1.0351875494505813 -0.04946492230514883 0.12665378895506937
1.0447268652541204 -0.049464922264484595 0.12029424483610518
1.054266181057654 -0.04946492222382036 0.11393470071714099
1.063805496861193 -0.04946492218315887 0.10757515659817679
1.073344812664732 -0.049464922142494636 0.10121561247921258
1.082884128468271 -0.0494649221018304 0.09485606836024839
1.0924234442718102 -0.04946492206116616 0.08849652424128418
1.1019627600753437 -0.04946492202050192 0.08213698012231999
1.1115020758788827 -0.04946492197984044 0.07577743600335579
1.1210413916824218 -0.049464921939176204 0.06941789188439158
1.1305807074859608 -0.04946492189851196 0.06305834776542739
1.1401200232895 -0.049464921857847725 0.05669880364646319
1.1496593390930334 -0.049464921817186244 0.050339259527498986
1.1591986548965725 -0.04946492177652201 0.043979715408534785
1.1687379707001115 -0.049464921735857766 0.03762017128956508
1.1782772865036506 -0.04946492169519353 0.03126062717060088
1.1878166023071897 -0.049464921654529294 0.02490108305163668
1.1973559181107232 -0.04946492161386781 0.01854153893267248
1.2068952339142622 -0.04946492157320357 0.01218199481370828
1.2164345497178013 -0.049464921532539334 0.00582245069474408
1.2259738655213404 -0.0494649214918751 -0.0005370934242201205
1.2366215822577105 -0.04794334128942822 -0.002537049944786132
1.2477400955295699 -0.04572884648064986 -0.0025290476637197562
1.2588090813173192 -0.04352740201019593 -0.002531756224154401
1.2698354472213702 -0.041329664078954415 -0.002518471424950228
1.2808116461493038 -0.039146683432130076 -0.0025211907862607895
1.2917431730541706 -0.03697100400045476 -0.0025185937605495218
1.3026302501190412 -0.03480259152796031 -0.0025107136847534006
1.3134706822829991 -0.03264504579002547 -0.0025081493376965668
1.3242683771945374 -0.03049285950784865 -0.0024950519896606745
1.3350176622361167 -0.028355031050808666 -0.0024977916953372137
1.345725871426461 -0.026220671204300675 -0.002484770143297799
1.3563863535742569 -0.024100513666106257 -0.00248751975639572
1.3670050822237967 -0.021985539283622096 -0.002479801457209645
1.377581123223872 -0.01987751032552638 -0.002466897500633491
1.388110440740965 -0.017783454805796118 -0.0024696668498882792
1.3985976491684693 -0.015696223104062577 -0.002467228768795031
1.409043973321039 -0.013614033570239308 -0.0024544298347495496
1.419444553120241 -0.011545593855103781 -0.002457207653270299
1.4298047328043761 -0.009482106247745 -0.0024496456179693153
1.4401217693084656 -0.007428749526739213 -0.00244726810671981
1.4503988028418273 -0.005380284696098779 -0.002434613727658333
1.4606332053052424 -0.003341848752339902 -0.002427143498852235
-0.3495593796543258 0.07361015357824935 1.4977733784771137
-0.3325877983960064 0.07702836425979553 1.4977815667842163
-0.3157410008237461 0.08042144252014574 1.497789694886721
-0.2990176157687496 0.08378966452353515 1.497797763446183
-0.2824162920781085 0.08713330240284482 1.497805773114495
-0.26593569825090707 0.09045262433289476 1.4978137245340684
-0.24957452208221453 0.093747894602132 1.49782161833801
-0.23332466974345628 0.09702212329004974 1.4978340293116257
-0.217198541116301 0.1002700481621664 1.4978417932707657
-0.2011880049878826 0.10349469182647134 1.4978495015776496
-0.18529840595890731 0.1066936127032809 1.4978526297428907
-0.16951528640454308 0.10987245779895533 1.497860244650894
-0.15384087637682045 0.11303008566389035 1.497870052033553
-0.13828046622928392 0.11616407292911864 1.4978775515584406
-0.12283278248431054 0.1192746832670857 1.4978827676363702
-0.10748409598807457 0.12236737129538393 1.497894615525183
-0.09224899732817397 0.12543583595982188 1.4979019504960385
-0.07712006036275297 0.128482918852109 1.4979092343551188
-0.06209617930560687 0.1315088426859924 1.4979164676348116
-0.04718223858982007 0.13451130107358045 1.497919266880381
-0.03236219363224775 0.13749683436194948 1.4979286001306817
-0.01764696582741535 0.14046059534948444 1.4979356923098788
-0.003032521576853121 0.14340405774767287 1.4979427359152422
0.011482170975045305 0.146327429380238 1.4979497314440873
0.025898129645802247 0.14923091524352092 1.497956679386963
0.04021635845281155 0.15211471755441072 1.4979635802277718
0.054437847846405214 0.15497903579728112 1.4979704344438647
0.06856357493825554 0.15782406677000066 1.4979772425061761
0.0825945037251789 0.16065000462900603 1.4979840048793163
0.09652890046076379 0.16345586098717074 1.4979886034331833
0.11037575810852736 0.1662453646885464 1.4979973943855531
0.12412794807610099 0.16901516238788472 1.498004022417197
0.13778906889810405 0.171766618055118 1.4980106065569867
0.1513600222003078 0.17449991328467074 1.4980171472394668
0.16484169774561552 0.1772152272816899 1.4980236448934694
0.17823497362853818 0.17991273690122206 1.4980300999422067
0.191538223978293 0.18259149010451042 1.498034442739861
0.20475978158351632 0.18525503890710643 1.4980428838891273
0.21789301319994306 0.1879001735948782 1.498049213606431
0.23094124460573828 0.19052818858110387 1.498055502356871
0.24390529833993693 0.19313924953152625 1.4980617505368803
0.2567859863628659 0.19573351998124353 1.498067958537797
0.26958411022563644 0.19831116136887297 1.4980741267459297
0.28230046123644986 0.20087233307001867 1.498080255542663
0.2949358206236639 0.20341719243013068 1.4980863453045195
0.3074909596957985 0.20594589479672798 1.49809239640324
0.31996663999847835 0.20845859355099938 1.4980984092058651
0.3323636134684267 0.2109554401388371 1.498104384074791
0.34468262258453236 0.21343658410124394 1.4981103213678686
0.3569244005160759 0.2159021731041991 1.4981162214384576
0.36908967126819703 0.21835235296795194 1.4981220846355008
0.38117914982462675 0.22078726769577015 1.498127911303597
0.3931935422877612 0.2232070595021528 1.4981337017830558
0.40513354601614526 0.22561186884051704 1.4981394564099755
0.4169998497593984 0.22800183443037653 1.49814517551631
0.42879109488547257 0.23037609456879643 1.4981489105279564
0.4405140700365131 0.23273778073266407 1.4981565084746682
0.4521633222047721 0.23508403045221762 1.4981621229704125
0.4637415459095962 0.2374159744884528 1.4981677032331435
0.47524938879456785 0.2397337432818065 1.4981732495750006
0.4866874906534279 0.24203746569170603 1.49817876230434
0.49805648354865883 0.2443272690204307 1.4981842417257958
0.4987864760632475 0.2412607574698263 1.4875399815436727
0.49877999900822556 0.23779231203936002 1.4760553240987904
0.4987754006431325 0.23429299876266085 1.4644671666782096
0.4987688127362594 0.23076040871694484 1.45277010872012
0.4987641199190071 0.22719607936925904 1.4409666532188816
0.49875741813986113 0.22359754869729973 1.4290512476042296
0.4987506536555983 0.21996534841538268 1.4170243556369244
0.4987458093448302 0.21630003934253242 1.4048865130704071
0.4987389261583901 0.21259907638145975 1.3926319288196232
0.49873398025401405 0.20886404786711968 1.3802632133576498
0.4987269750518467 0.2050923509162974 1.3677744092081736
0.4987199027358865 0.2012845189809157 1.3551659552695003
0.49871479387902645 0.1974411162954272 1.342438366812223
0.49870759424495653 0.19355944945742662 1.3295854249594146
0.4987023759320008 0.1896411591263159 1.3166098495446799
0.49869710666254 0.1856846069311394 1.303507568434162
0.4986897142394826 0.1816881006114001 1.2902743576017583
0.4986843305711066 0.1776533128585518 1.276913003111631
0.4986747095517753 0.17357623678161424 1.263414396496939
0.4986712999576208 0.16946202137739244 1.2497886275872563
0.4986636303370919 0.16530428765398622 1.2360215473998517
0.4986580071397652 0.16110590324231883 1.2221184504554652
0.4986501927465671 0.15686387232095017 1.2080722383910836
0.4986444441229108 0.15257993288284064 1.1938858302060051
0.4986364806190084 0.14825101486287331 1.1795519102975116
0.4986306025841091 0.14387887832427987 1.1650734418485287
0.49862248545416615 0.13946037611378842 1.1504428831835434
0.4986164738549993 0.13499729048137096 1.1356632414597392
0.4986103995738683 0.13048766897954805 1.1207294948108426
0.4985998361757575 0.1259282035920355 1.1056336366281867
0.4985936102201521 0.12132327277316834 1.090384285852831
0.49858731831587066 0.11666956404614781 1.0749734057384153
0.4985787113017187 0.11196496858909005 1.0593955104053672
0.49857001211518326 0.1072099916909408 1.0436507916284647
0.4985612192676895 0.10240381969384266 1.027736555217106
0.4985523312384257 0.09754562132440385 1.011650048651955
0.49855023774573665 0.09263871177194646 0.9953976601128444
0.4985411924058009 0.08767393966203804 0.9789582405880429
0.49852972514729743 0.08265311865078957 0.9623347777300466
0.49852046623189955 0.07757816412217601 0.9455305292689246
0.4985181490475142 0.07245109773997928 0.928549036228075
0.49850399903614323 0.06725938304064986 0.9113612888484065
0.4984968138505167 0.06201367307620048 0.893990042827577
0.4984871592478718 0.05670712561982166 0.8764189232780215
0.498479796528555 0.05134171163034408 0.8586512846584023
0.49846993407677637 0.04591337711183912 0.8406768928101024
0.49846481692536465 0.040425667020088034 0.8225026601214649
0.49845231014035424 0.0348697516835925 0.8041074288985621
0.4984470308634208 0.029253891122033353 0.7855088150995044
0.4984342734292136 0.023567470688483808 0.7666814622489352
0.49842633907756545 0.01781729120270137 0.7476396967450477
0.4984158092699875 0.011997339393461514 0.728368545752978
0.4984076703098854 0.006109669437030791 0.7088714893810705
0.49840196523693675 0.00015309322440160435 0.6891445634107582
0.4983885511094736 -0.005880429245339619 0.66916789788006
0.4983826608183985 -0.011982031440657811 0.648960707274359
0.4983715428695072 -0.01816160500937792 0.6284987272198858
0.4983628820478708 -0.02441534278512853 0.6077894454904766
0.4983515043880752 -0.030748169964871754 0.5868199970366695
0.49834261122407325 -0.03715796817386112 0.5655939312659548
0.49832567926385357 -0.04365349457470803 0.5440892562368315
0.4983218297538869 -0.05022159559506659 0.5223354613777426
0.4983045513726953 -0.05688230803716592 0.5002838504409537
0.502685524193684 -0.060512712342079854 0.485337749137601
0.512224839997223 -0.06051271230141562 0.47897820501863686
0.5217641558007621 -0.06051271226075138 0.47261866089967264
0.5313034716043011 -0.060512712220087146 0.4662591167807084
0.5408427874078402 -0.06051271217942566 0.45989957266174425
0.5503821032113793 -0.06051271213876142 0.45354002854278
0.5599214190149128 -0.060512712098097186 0.4471804844238158
0.5694607348184518 -0.06051271205743295 0.44082094030485164
0.5790000506219909 -0.06051271201677146 0.4344613961858874
0.58853936642553 -0.06051271197610723 0.42810185206692325
0.598078682229069 -0.06051271193544299 0.421742307947959
0.6076179980326025 -0.060512711894778755 0.4153827638289948
0.6171573138361416 -0.06051271185411451 0.40902321971003064
0.6266966296396806 -0.06051271181345303 0.4026636755910664
0.6362359454432196 -0.060512711772788795 0.39630413147210225
0.6457752612467587 -0.06051271173212456 0.38994458735313253
0.6553145770502923 -0.060512711691460316 0.3835850432341683
0.6648538928538312 -0.06051271165079608 0.37722549911520414
0.6743932086573703 -0.0605127116101346 0.3708659549962399
0.6839325244609094 -0.060512711569470364 0.3645064108772757
0.6934718402644484 -0.06051271152880612 0.35814686675831153
0.7030111560679819 -0.060512711488141885 0.3517873226393473
0.712550471871521 -0.060512711447480404 0.34542777852038314
0.72208978767506 -0.06051271140681616 0.3390682344014189
0.7316291034785991 -0.060512711366151925 0.3327086902824547
0.7411684192821382 -0.06051271132548769 0.32634914616349053
0.7507077350856772 -0.06051271128482345 0.3199896020445263
0.7602470508892107 -0.060512711244161965 0.31363005792556214
0.7697863666927498 -0.06051271120349773 0.3072705138065979
0.7793256824962889 -0.060512711162833493 0.3009109696876337
0.7888649982998279 -0.06051271112216926 0.29455142556866953
0.798404314103367 -0.06051271108150777 0.2881918814497053
0.8079436299069005 -0.060512711040843534 0.28183233733074115
0.8174829457104396 -0.0605127110001793 0.2754727932117769
0.8270222615139786 -0.06051271095951506 0.2691132490928127
0.8365615773175176 -0.060512710918850826 0.26275370497384853
0.8461008931210566 -0.06051271087818934 0.2563941608548843
0.8556402089245903 -0.0605127108375251 0.25003461673592015
0.8651795247281292 -0.060512710796860866 0.24367507261695592
0.8747188405316683 -0.060512710756196623 0.23731552849799173
0.8842581563352073 -0.06051271071553239 0.23095598437902753
0.8937974721387464 -0.060512710674870906 0.2245964402600633
0.9033367879422799 -0.06051271063420667 0.21823689614109912
0.912876103745819 -0.06051271059354243 0.21187735202213492
0.922415419549358 -0.06051271055287819 0.20551780790317073
0.9319547353528971 -0.06051271051221671 0.19915826378420654
0.9414940511564361 -0.060512710471552475 0.1927987196652423
0.9510333669599697 -0.06051271043088823 0.18643917554627812
0.9605726827635087 -0.060512710390223996 0.18007963142731392
0.9701119985670478 -0.06051271034955976 0.17372008730834973
0.9796513143705868 -0.06051271030889827 0.16736054318938554
0.9891906301741259 -0.060512710268234036 0.1610009990704213
0.9987299459776648 -0.0605127102275698 0.15464145495145712
1.0082692617811984 -0.060512710186905565 0.14828191083249292
1.0178085775847374 -0.06051271014624408 0.14192236671352873
1.0273478933882765 -0.06051271010557984 0.13556282259456454
1.0368872091918155 -0.060512710064915605 0.1292032784756003
1.0464265249953546 -0.06051271002425137 0.12284373435663612
1.0559658407988881 -0.06051270998358713 0.11648419023767193
1.0655051566024272 -0.060512709942925645 0.11012464611870773
1.0750444724059662 -0.06051270990226141 0.10376510199974352
1.0845837882095053 -0.06051270986159717 0.09740555788077933
1.0941231040130444 -0.06051270982093294 0.09104601376181512
1.1036624198165779 -0.060512709780268695 0.08468646964285093
1.113201735620117 -0.060512709739607214 0.07832692552388673
1.122741051423656 -0.06051270969894298 0.07196738140492252
1.132280367227195 -0.060512709658278735 0.06560783728595833
1.1418196830307341 -0.0605127096176145 0.05924829316699413
1.1513589988342676 -0.06051270957695302 0.052888749048029926
1.1608983146378067 -0.06051270953628878 0.046529204929065725
1.1704376304413457 -0.06051270949562454 0.04016966081009602
1.1799769462448848 -0.0605127094549603 0.03381011669113182
1.1895162620484239 -0.06051270941429607 0.02745057257216762
1.1990555778519574 -0.060512709373634586 0.02109102845320342
1.2085948936554964 -0.060512709332970344 0.01473148433423922
1.2181342094590355 -0.06051270929230611 0.00837194021527502
1.2276735252625746 -0.06051270925164187 0.0020123960963108196
1.2376694969738489 -0.059877814638899546 -0.002548542806277025
1.2487952516493217 -0.05763619495465225 -0.002540509411080603
1.2598753612375548 -0.05540215910326616 -0.0025271668555954165
1.2709061712467358 -0.053181281642960085 -0.002524544134075709
1.2818919271080274 -0.050967868952914844 -0.0025166118255826033
1.2928303529984324 -0.048765594925445875 -0.0025140222181525827
1.3037242610860613 -0.04657068439254908 -0.0025061451187517723
1.3145702517383784 -0.044388620136341636 -0.002508875426117824
1.3253746659812715 -0.042210141620217266 -0.0024957656311004194
1.3361306079121078 -0.040046203851515055 -0.002498506137148608
1.3468431203526365 -0.03788941711653369 -0.0024959809316455117
1.3575146608353832 -0.03573613076592888 -0.002477735856920845
1.3681365070873586 -0.0336007671878201 -0.002485729185030572
1.3787178871671812 -0.031468808678942466 -0.0024780241097901467
1.3892546456936714 -0.029347413564145972 -0.0024755618119967765
1.3997491914735936 -0.02723294737983975 -0.0024679092642840984
1.4102017296925538 -0.02512537847818067 -0.00245509842584066
1.4206084666543368 -0.023031734027675794 -0.0024578771548748363
1.4309757208692884 -0.020941351550434164 -0.0024451391024038144
1.4412997344232277 -0.018861244606897514 -0.0024376109055704934
1.451578943732259 -0.01679482624348509 -0.0024455556453214654
1.4618211455778756 -0.014728092217951379 -0.002427783133278824
-0.3515604659181068 0.06256999636497926 1.4977736380811528
-0.3345563883517243 0.06603405916486382 1.4977818375398213
-0.3176775176341102 0.06947261488355277 1.4977899766230662
-0.30092247592663707 0.07288594421369693 1.4977980559952895
-0.2842969477578099 0.07627147599569123 1.4978014452057726
-0.267785434397027 0.07963519898971609 1.4978094239989341
